X,Y,Z,Intensity
24.034676,8.271446,157.15254,157.0
27.790413,9.446544,179.45436,176.0
29.14622,9.787242,185.90103,196.0
31.51445,10.455669,198.56973,211.0
33.307167,10.919582,207.35101,228.0
34.436527,11.157703,211.84254,244.0
36.094402,11.559572,219.44096,255.0
36.588467,11.58379,219.86868,255.0
36.932518,11.560501,219.39435,255.0
36.48502,11.292733,214.28076,255.0
35.452477,10.851805,205.8831,250.0
35.4465,10.731309,203.56606,237.0
34.283314,10.266866,194.7259,225.0
34.159794,10.120382,191.9178,218.0
31.946728,9.364492,177.55557,206.0
30.203056,8.760596,166.079,191.0
28.490778,8.178233,155.01398,178.0
26.970703,7.662431,145.21367,172.0
23.930937,6.7297473,127.517136,157.0
21.097313,5.873213,111.26885,142.0
17.936499,4.943558,93.640755,132.0
14.813903,4.0426655,76.56314,123.0
11.592407,3.1326396,59.31825,115.0
10.314495,2.760353,52.259796,113.0
9.64423,2.556257,48.387383,111.0
9.851849,2.5865138,48.951515,109.0
9.442976,2.4558682,46.470726,107.0
9.676692,2.4932194,47.16906,105.0
9.774066,2.4950762,47.195663,106.0
9.843509,2.4898334,47.087917,106.0
9.261788,2.3214707,43.895756,105.0
9.514998,2.3635278,44.6827,103.0
10.001521,2.4622748,46.54081,103.0
10.707991,2.6129508,49.37949,104.0
11.200472,2.7092311,51.18924,104.0
12.507277,2.9991078,56.655388,107.0
16.933086,4.02548,76.029564,110.0
20.009085,4.716206,89.05796,118.0
27.798775,6.4969096,122.65947,130.0
32.28283,7.481682,141.22354,143.0
37.10296,8.5273285,160.92879,151.0
41.872368,9.544183,180.08253,162.0
46.066532,10.414368,196.46136,172.0
47.504482,10.652389,200.9102,187.0
50.961506,11.335695,213.75343,202.0
55.363297,12.216574,230.31572,212.0
57.3089,12.545806,236.47284,227.0
59.320854,12.884277,242.80104,241.0
61.880836,13.335574,251.25183,255.0
64.02101,13.690121,257.8761,255.0
65.67574,13.936211,262.45456,255.0
66.81131,14.069226,264.90155,255.0
67.70845,14.1504,266.37112,255.0
68.38442,14.184477,266.95322,255.0
69.22252,14.251423,268.15305,255.0
69.84666,14.27365,268.51065,255.0
70.86605,14.3757305,270.36945,255.0
71.75245,14.449539,271.69534,255.0
72.303215,14.455176,271.73862,255.0
73.315575,14.552349,273.50174,255.0
73.6795,14.520345,272.8363,255.0
74.77259,14.631474,274.8596,255.0
75.221275,14.6158285,274.5005,255.0
75.82679,14.630656,274.71326,255.0
75.93147,14.54931,273.12006,255.0
77.0528,14.662544,275.17892,255.0
77.83469,14.71007,276.00345,255.0
78.70708,14.77394,277.13367,255.0
78.72953,14.678479,275.2748,255.0
79.44062,14.711827,275.83142,255.0
80.204796,14.75449,276.56192,255.0
81.701706,14.930491,279.79025,255.0
82.24415,14.930902,279.72675,255.0
83.006935,14.971041,280.40695,255.0
83.74625,15.006452,280.99777,255.0
84.56664,15.055838,281.84946,255.0
0.0,0.0,0.0,0.0
0.0,0.0,0.0,0.0
0.0,0.0,0.0,0.0
0.0,0.0,0.0,0.0
0.0,0.0,0.0,0.0
0.0,0.0,0.0,0.0
0.0,0.0,0.0,0.0
0.0,0.0,0.0,0.0
0.0,0.0,0.0,0.0
0.0,0.0,0.0,0.0
0.0,0.0,0.0,0.0
8.227544,3.7195425,68.34484,255.0
8.3561735,3.7190938,68.329254,255.0
7.6908956,3.3707104,61.921803,250.0
7.8016906,3.3678238,61.86192,169.0
7.210378,3.0664294,56.319416,137.0
6.9455013,2.910638,53.45199,127.0
6.4787693,2.6759586,49.136562,123.0
6.256243,2.547374,46.76997,118.0
6.338044,2.544567,46.71287,114.0
6.3449216,2.5121725,46.112614,110.0
6.153889,2.403367,44.110012,107.0
6.3135543,2.4326072,44.641132,106.0
6.5076356,2.4741561,45.3979,105.0
8.746802,3.2819755,60.21277,107.0
11.866445,4.395041,80.62322,113.0
16.079985,5.8797193,107.84426,125.0
20.89375,7.543735,138.3469,139.0
25.248886,9.002851,165.08394,167.0
26.984978,9.503745,174.24512,181.0
29.639965,10.312184,189.04135,198.0
31.634499,10.874216,199.31673,212.0
32.167927,10.926634,200.24931,226.0
33.950943,11.397309,208.84552,235.0
35.187946,11.675917,213.91995,255.0
35.679165,11.703517,214.39438,255.0
35.929558,11.652388,213.42628,255.0
35.685635,11.44388,209.576,251.0
34.48158,10.935482,200.23535,241.0
33.563847,10.528018,192.74506,227.0
33.719105,10.462291,191.51224,218.0
31.148043,9.561107,174.9888,205.0
29.51012,8.962408,164.00552,193.0
27.896494,8.383556,153.38857,180.0
26.375277,7.844192,143.49709,172.0
23.682573,6.9710674,127.503944,157.0
21.031141,6.1277084,112.06016,146.0
17.700718,5.10547,93.35055,134.0
14.317497,4.0885134,74.743576,126.0
11.558916,3.2682245,59.73748,116.0
10.417716,2.916795,53.304855,113.0
9.738985,2.700393,49.341568,112.0
9.608,2.6385584,48.203335,110.0
9.346591,2.5424192,46.438824,109.0
9.415183,2.5370083,46.331768,107.0
9.520112,2.5413976,46.403618,106.0
9.755018,2.5800831,47.101467,106.0
9.459735,2.4791143,45.249943,105.0
9.365037,2.432065,44.383007,103.0
9.257601,2.382582,43.471905,103.0
9.540292,2.4334905,44.392445,103.0
10.28145,2.5994127,47.410282,103.0
11.199878,2.8068602,51.18411,104.0
13.648949,3.390989,61.824013,108.0
17.806108,4.385796,79.94566,113.0
24.284008,5.9304004,108.08003,121.0
28.99885,7.0219884,127.948654,132.0
33.014088,7.927297,144.41566,144.0
38.08624,9.069242,165.18584,154.0
43.059925,10.169111,185.18121,166.0
47.01311,11.011969,200.48885,181.0
50.087822,11.63706,211.82591,193.0
51.679214,11.910244,216.7536,206.0
55.798122,12.756923,232.11368,216.0
58.80145,13.337167,242.6201,232.0
60.358562,13.582845,247.03674,243.0
62.620434,13.982053,254.24281,255.0
65.580635,14.529803,264.14578,255.0
65.70553,14.445786,262.56125,255.0
66.8748,14.59091,265.1408,255.0
67.45728,14.606778,265.37048,255.0
68.29011,14.676208,266.57248,255.0
69.11609,14.74314,267.72812,255.0
69.93496,14.807574,268.83743,255.0
70.96653,14.915766,270.74005,255.0
71.64368,14.948427,271.27066,255.0
72.17017,14.949411,271.22583,255.0
72.95684,15.00388,272.15067,255.0
73.75896,15.060723,273.1177,255.0
74.91252,15.188014,275.36102,255.0
75.47085,15.193678,275.3982,255.0
75.83492,15.160432,274.72977,255.0
76.306786,15.149038,274.4571,255.0
76.92555,15.166763,274.71152,255.0
77.83057,15.240294,275.97583,255.0
78.71541,15.3089,277.1499,255.0
78.47413,15.159042,274.36887,255.0
79.32265,15.220296,275.40878,255.0
80.28963,15.303312,276.84137,255.0
81.2236,15.378977,278.1398,255.0
82.36867,15.493353,280.13702,255.0
82.8988,15.491321,280.02847,255.0
83.70268,15.540133,280.83838,255.0
84.90352,15.661539,282.95886,255.0
0.0,0.0,0.0,0.0
0.0,0.0,0.0,0.0
0.0,0.0,0.0,0.0
0.0,0.0,0.0,0.0
0.0,0.0,0.0,0.0
0.0,0.0,0.0,0.0
0.0,0.0,0.0,0.0
0.0,0.0,0.0,0.0
0.0,0.0,0.0,0.0
0.0,0.0,0.0,0.0
0.0,0.0,0.0,0.0
8.227092,3.8488603,68.33773,255.0
8.233734,3.7922158,67.324745,255.0
8.011378,3.633443,64.49895,237.0
7.8869896,3.5232103,62.535213,165.0
7.2331843,3.183253,56.494785,136.0
6.680263,2.8969765,51.40822,125.0
6.2754035,2.682226,47.591854,121.0
6.2316747,2.625734,46.58402,116.0
6.208731,2.5794582,45.757565,111.0
6.3258934,2.5918636,45.972073,109.0
6.6142774,2.6731293,47.407677,106.0
6.7417645,2.6880589,47.666527,105.0
7.4794803,2.9426768,52.17503,106.0
8.897347,3.454728,61.246117,107.0
12.803616,4.907296,86.986305,114.0
17.608196,6.662747,118.0878,127.0
21.902102,8.183203,145.01654,149.0
25.6135,9.450926,167.45969,168.0
27.367973,9.974314,176.7095,182.0
29.850595,10.747159,190.37541,197.0
31.353523,11.152985,197.53673,211.0
31.898106,11.212336,198.55995,224.0
33.41404,11.607734,205.53279,234.0
34.42239,11.81969,209.2556,245.0
34.67242,11.76939,208.33472,253.0
35.29062,11.843785,209.62067,251.0
34.104206,11.317644,200.27872,241.0
32.9991,10.829819,191.61719,231.0
32.46495,10.537994,186.42535,218.0
31.151033,10.0021105,176.91788,207.0
29.169163,9.265523,163.86351,194.0
27.79364,8.735098,154.45845,183.0
25.982445,8.080298,142.85721,173.0
22.905762,7.049604,124.61479,161.0
20.50319,6.245406,110.38116,149.0
17.238523,5.197616,91.84746,139.0
14.789496,4.4143553,77.993454,129.0
11.3605585,3.3571217,59.304165,121.0
10.690542,3.127978,55.246944,114.0
9.733766,2.8202233,49.80281,113.0
9.579238,2.748613,48.529854,111.0
9.714619,2.7607617,48.73586,109.0
9.11175,2.5648694,45.26979,109.0
9.332799,2.6024034,45.924114,108.0
9.23501,2.5511599,45.011753,106.0
9.374679,2.5658534,45.26281,105.0
9.262928,2.5120935,44.306366,104.0
8.874135,2.3848538,42.05446,102.0
8.971673,2.3894227,42.12719,102.0
9.578157,2.5282507,44.56646,102.0
11.229592,2.9380229,51.779865,103.0
12.810315,3.3222911,58.541046,105.0
14.682154,3.7747433,66.50075,109.0
18.410883,4.69272,82.65693,115.0
25.744642,6.5061073,114.57523,125.0
31.491108,7.891109,138.9382,137.0
35.6386,8.855588,155.88863,147.0
39.4388,9.718462,171.04375,158.0
44.17487,10.795832,189.9668,170.0
47.448524,11.501113,202.33577,186.0
50.610622,12.168138,214.02641,201.0
53.954044,12.867677,226.28365,214.0
56.457005,13.357209,234.84306,223.0
58.335594,13.692437,240.68616,235.0
61.21174,14.254706,250.5164,249.0
62.55146,14.453203,253.95033,255.0
64.96067,14.893835,261.6359,255.0
66.1344,15.046613,264.2621,255.0
66.8488,15.093351,265.02475,255.0
67.802444,15.19299,266.7153,255.0
68.55843,15.247171,267.60678,255.0
69.08946,15.25089,267.6119,255.0
69.93113,15.322609,268.80957,255.0
70.49936,15.333806,268.94467,255.0
71.091545,15.350002,269.1669,255.0
72.11925,15.459323,271.02115,255.0
72.88189,15.510659,271.85776,255.0
73.52864,15.536774,272.2516,255.0
74.28489,15.585489,273.04065,255.0
75.358055,15.699541,274.97324,255.0
75.56339,15.63246,273.73267,255.0
76.30261,15.675992,274.42865,255.0
77.25392,15.762194,275.87067,255.0
77.96269,15.798067,276.43082,255.0
78.7111,15.841428,277.1212,255.0
78.50752,15.693895,274.47223,255.0
79.30566,15.747241,275.33633,255.0
80.24706,15.828133,276.6811,255.0
80.98867,15.868804,277.3218,255.0
82.55746,16.069948,280.76538,255.0
83.101746,16.070345,280.70026,255.0
83.93296,16.125862,281.59723,255.0
84.925156,16.21139,283.01712,255.0
0.0,0.0,0.0,0.0
0.0,0.0,0.0,0.0
0.0,0.0,0.0,0.0
0.0,0.0,0.0,0.0
0.0,0.0,0.0,0.0
0.0,0.0,0.0,0.0
0.0,0.0,0.0,0.0
0.0,0.0,0.0,0.0
0.0,0.0,0.0,0.0
0.0,0.0,0.0,0.0
0.0,0.0,0.0,255.0
8.838027,4.273813,73.40869,255.0
8.471671,4.033107,69.26678,255.0
8.359959,3.9191303,67.30192,226.0
7.5550795,3.4885168,59.900486,156.0
6.65856,3.0289807,52.00404,131.0
6.69754,3.0022118,51.538555,121.0
6.4780464,2.8620183,49.126175,117.0
5.8134775,2.5319593,43.455643,115.0
5.9750266,2.5659032,44.03296,110.0
6.2010164,2.626201,45.062263,108.0
6.1342683,2.562567,43.964993,106.0
6.8373213,2.8179038,48.3397,104.0
8.23733,3.3499062,57.45869,105.0
10.288821,4.129467,70.82092,106.0
14.226169,5.6360235,96.64607,116.0
18.395277,7.19482,123.36004,134.0
22.446507,8.668852,148.61357,154.0
25.577522,9.755269,167.21599,169.0
27.541178,10.375243,177.81883,182.0
28.547117,10.623764,182.05312,193.0
30.485435,11.20915,192.05779,206.0
31.316757,11.378464,194.93129,216.0
33.104332,11.887182,203.6174,230.0
33.382557,11.84842,202.92413,240.0
34.512997,12.109557,207.36629,244.0
33.840374,11.739302,200.99625,240.0
32.875572,11.277099,193.05373,231.0
31.679508,10.746662,183.94536,221.0
31.358278,10.521353,180.06136,211.0
28.662392,9.512788,162.77576,196.0
26.862284,8.81993,150.89653,188.0
24.677992,8.016937,137.13683,174.0
22.589304,7.261504,124.19467,161.0
20.072367,6.3855014,109.19467,151.0
16.857035,5.3075857,90.74709,141.0
13.951795,4.3482137,74.331894,129.0
12.176393,3.7567234,64.209816,123.0
10.48343,3.202194,54.72263,119.0
9.596645,2.9024203,49.591362,113.0
9.715692,2.909734,49.70782,113.0
9.755586,2.8934305,49.42076,111.0
9.651569,2.835164,48.417103,110.0
9.111233,2.6510491,45.264935,109.0
9.1503525,2.6374114,45.02407,108.0
9.069256,2.5896995,44.20163,106.0
9.244466,2.6153796,44.631855,105.0
9.439986,2.6462834,45.15098,103.0
8.883061,2.4676073,42.09463,102.0
9.028246,2.4854243,42.39068,102.0
10.5181,2.869811,48.93747,102.0
12.313129,3.3299487,56.773205,104.0
13.122018,3.5176814,59.96244,106.0
16.07954,4.2731624,72.82633,109.0
22.808735,6.0093765,102.39621,119.0
26.474127,6.91567,117.815796,128.0
32.347477,8.378551,142.70927,142.0
36.481434,9.370163,159.56723,153.0
42.689594,10.873628,185.13289,165.0
43.696503,11.038401,187.90015,179.0
49.072548,12.295169,209.25053,192.0
51.08073,12.694581,216.00351,206.0
54.109882,13.339258,226.92575,218.0
56.240288,13.753857,233.92976,226.0
58.34304,14.15518,240.7047,236.0
61.468456,14.796368,251.55432,250.0
62.8647,15.014568,255.20914,255.0
65.47427,15.516944,263.69113,255.0
66.40787,15.61746,265.3414,255.0
67.4929,15.751786,267.56476,255.0
68.327484,15.826071,268.76706,255.0
68.54321,15.756972,267.53384,255.0
69.33673,15.820738,268.55612,255.0
69.53619,15.749007,267.27795,255.0
70.40274,15.828305,268.5624,255.0
70.94757,15.834645,268.6082,255.0
72.162155,15.98929,271.16864,255.0
72.913246,16.039751,271.961,255.0
73.56021,16.066746,272.35468,255.0
74.28069,16.109299,273.01138,255.0
75.390015,16.234987,275.0759,255.0
75.58343,16.163055,273.7914,255.0
76.53077,16.252224,275.23532,255.0
77.53284,16.351706,276.85263,255.0
77.9211,16.321253,276.26935,255.0
78.28236,16.285599,275.59778,255.0
78.791985,16.281076,275.45276,255.0
79.38968,16.29469,275.61407,255.0
80.92956,16.500212,279.0201,255.0
81.27858,16.461826,278.3004,255.0
82.55279,16.610092,280.7353,255.0
83.08409,16.607918,280.62643,255.0
83.954315,16.673077,281.6546,255.0
84.7497,16.722628,282.4181,255.0
0.0,0.0,0.0,0.0
0.0,0.0,0.0,0.0
0.0,0.0,0.0,0.0
0.0,0.0,0.0,0.0
0.0,0.0,0.0,0.0
0.0,0.0,0.0,0.0
0.0,0.0,0.0,0.0
0.0,0.0,0.0,0.0
0.0,0.0,0.0,0.0
0.0,0.0,0.0,0.0
8.699295,4.4132156,73.41701,255.0
8.837509,4.4126935,73.40053,255.0
8.537702,4.196869,69.80299,255.0
8.066746,3.9047909,64.938,219.0
7.4232016,3.5392146,58.851807,152.0
7.330946,3.4434214,57.252445,130.0
6.4911723,3.0044367,49.9479,121.0
6.501548,2.9659183,49.30181,115.0
5.855524,2.6333013,43.76764,113.0
6.0299416,2.6737921,44.435326,109.0
5.7648635,2.520974,41.890587,107.0
6.3232265,2.7275043,45.3169,103.0
7.111932,3.0265098,50.27855,103.0
8.295173,3.4832606,57.859127,104.0
10.865987,4.503104,74.7898,105.0
15.342612,6.2762275,104.22523,121.0
18.320112,7.3987145,122.849525,138.0
22.445187,8.95057,148.59706,154.0
25.368872,9.990716,165.84323,168.0
27.728283,10.785828,179.0175,180.0
28.41811,10.920087,181.22089,189.0
29.667503,11.263574,186.89503,201.0
30.53259,11.454744,190.04028,210.0
32.039772,11.87951,197.05922,225.0
33.75866,12.372034,205.19963,232.0
33.963657,12.304818,204.05498,233.0
32.40539,11.607524,192.46304,230.0
30.865034,10.932162,181.23785,220.0
30.964573,10.846149,179.78473,211.0
28.629791,9.918658,164.38559,197.0
26.73627,9.162452,151.82922,188.0
24.411547,8.276239,137.12254,174.0
22.047937,7.39575,122.51507,165.0
19.449854,6.455884,106.92855,153.0
16.430136,5.397012,89.37608,143.0
13.628295,4.430708,73.361855,134.0
12.240802,3.939187,65.212715,126.0
11.3163185,3.6050537,59.671257,120.0
9.365794,2.9539616,48.8861,115.0
9.517997,2.9723675,49.182365,114.0
9.688841,2.996178,49.567852,113.0
9.59582,2.938719,48.60886,111.0
9.097477,2.7594187,45.63511,110.0
8.975525,2.6966026,44.5884,109.0
8.722342,2.5959098,42.915802,108.0
9.105441,2.684697,44.375664,105.0
9.197611,2.6868575,44.40332,104.0
9.523547,2.756643,45.548267,103.0
9.57089,2.7452538,45.351704,102.0
10.121696,2.8771827,47.522316,103.0
11.189221,3.1523387,52.057262,103.0
12.370485,3.4544024,57.034676,104.0
13.921801,3.8536162,63.613808,106.0
18.29396,5.0199656,82.85139,112.0
23.651384,6.4343114,106.1736,121.0
30.797901,8.307133,137.05038,133.0
35.495342,9.493303,156.58868,145.0
39.32925,10.43058,172.01437,158.0
43.466957,11.432186,188.49422,169.0
46.43516,12.112232,199.66624,185.0
48.98626,12.673251,208.87166,197.0
53.106136,13.627743,224.55652,210.0
54.021973,13.751295,226.54521,223.0
57.71018,14.57295,240.03116,231.0
60.017853,15.035747,247.60147,245.0
61.77924,15.355491,252.81293,254.0
63.931465,15.76664,259.52628,255.0
65.87765,16.121004,265.3018,255.0
66.1157,16.055143,264.1602,255.0
67.12035,16.175014,266.07394,255.0
68.07594,16.281342,267.76358,255.0
69.21928,16.430634,270.15848,255.0
69.58385,16.39422,269.4991,255.0
69.773605,16.317463,268.17648,255.0
70.502846,16.367065,268.9302,255.0
71.386604,16.451551,270.2562,255.0
72.404564,16.565521,272.06534,255.0
72.88533,16.555826,271.84262,255.0
73.57973,16.594448,272.41266,255.0
74.27635,16.633017,272.98114,255.0
74.890686,16.652744,273.23972,255.0
75.955765,16.771719,275.12573,255.0
76.89333,16.861086,276.52478,255.0
77.87315,16.958416,278.05325,255.0
78.226494,16.918919,277.3376,255.0
78.53984,16.871367,276.48978,255.0
79.113945,16.880085,276.56384,255.0
80.29519,17.01736,278.7431,255.0
80.65767,16.980436,278.06818,255.0
81.337875,17.01044,278.48883,255.0
82.5351,17.147465,280.66043,255.0
83.07924,17.1479,280.59537,255.0
84.22339,17.271366,282.5425,255.0
85.03355,17.32519,283.34915,255.0
0.0,0.0,0.0,0.0
0.0,0.0,0.0,0.0
0.0,0.0,0.0,0.0
0.0,0.0,0.0,0.0
0.0,0.0,0.0,0.0
0.0,0.0,0.0,0.0
0.0,0.0,0.0,0.0
0.0,0.0,0.0,0.0
0.0,0.0,0.0,0.0
0.0,0.0,0.0,0.0
8.752499,4.580204,73.86201,255.0
8.891558,4.579662,73.845436,255.0
8.398595,4.258658,68.66195,255.0
7.7904415,3.8899434,62.710323,207.0
7.0799003,3.4819672,56.127037,147.0
6.912943,3.3494616,53.98504,125.0
6.56728,3.135505,50.530796,118.0
6.31012,2.9693544,47.847603,113.0
5.85517,2.7161665,43.76262,111.0
5.906774,2.701762,43.525333,107.0
5.801865,2.6171532,42.157177,104.0
6.3922577,2.8442197,45.80914,102.0
7.162664,3.1442084,50.634464,102.0
8.294672,3.5928745,57.852497,104.0
12.099577,5.172439,83.27601,106.0
15.401535,6.4989886,104.61983,124.0
19.174341,7.9878716,128.57079,139.0
22.443832,9.232238,148.58003,154.0
24.897827,10.114386,162.75507,165.0
25.972288,10.421334,167.67148,176.0
27.489687,10.896411,175.29092,184.0
29.27198,11.46384,184.3934,195.0
30.320686,11.733932,188.71112,210.0
31.370989,11.998314,192.93546,223.0
32.029503,12.108463,194.67853,226.0
32.282265,12.064456,193.9426,227.0
30.591452,11.303305,181.6798,221.0
29.97392,10.951308,175.99576,210.0
28.552334,10.31657,165.76996,201.0
26.089613,9.323643,149.79236,190.0
24.23224,8.566192,137.60196,177.0
21.416838,7.4899073,120.29439,166.0
19.782097,6.8449464,109.91839,153.0
16.686638,5.713363,91.7324,145.0
13.43227,4.5514026,73.064445,135.0
11.767663,3.9464402,63.34255,130.0
10.706896,3.5542178,57.037766,125.0
9.350288,3.072666,49.301662,117.0
8.995773,2.9267302,46.952187,115.0
9.135683,2.9429433,47.204277,114.0
9.26779,2.9563508,47.4112,114.0
9.621771,3.0395904,48.737682,111.0
9.034436,2.8267138,45.316433,111.0
9.02905,2.7982297,44.85187,108.0
8.4398775,2.5910573,41.523777,106.0
8.746937,2.6603248,42.62618,105.0
9.104437,2.7435136,43.951126,104.0
9.653808,2.882471,46.168766,103.0
9.862607,2.9181428,46.73148,102.0
10.358892,3.037471,48.633343,103.0
11.188547,3.2515578,52.05131,103.0
12.911762,3.71926,59.527035,105.0
15.277914,4.3623657,69.80661,107.0
21.148039,5.9861574,95.772026,116.0
27.690905,7.7708364,124.30071,125.0
31.797213,8.847168,141.48967,136.0
36.835804,10.162519,162.49338,149.0
40.314114,11.028979,176.31233,161.0
44.99318,12.206812,195.10214,174.0
48.428677,13.030629,208.22688,191.0
50.151062,13.383803,213.82669,203.0
53.575848,14.181886,226.53043,215.0
56.391304,14.807137,236.4684,226.0
58.53931,15.248551,243.46655,234.0
60.035744,15.514596,247.6619,250.0
62.436726,16.008379,255.48969,255.0
64.28804,16.354631,260.95966,255.0
65.35645,16.497904,263.18863,255.0
66.4665,16.649403,265.54742,255.0
67.38438,16.75082,267.1061,255.0
68.1281,16.80774,267.95425,255.0
68.84109,16.856276,268.66794,255.0
69.60249,16.915852,269.55673,255.0
69.84989,16.850546,268.45514,255.0
70.996544,17.00154,270.79877,255.0
71.52225,17.002716,270.75513,255.0
73.11657,17.256077,274.72592,255.0
73.35397,17.187849,273.5757,255.0
74.36119,17.299685,275.29095,255.0
74.5836,17.22865,274.09552,255.0
75.35693,17.284973,274.92596,255.0
76.534485,17.432579,277.20697,255.0
76.827545,17.378067,276.27322,255.0
76.821686,17.257154,274.28406,255.0
77.66393,17.327108,275.32825,255.0
78.24813,17.338928,275.44794,255.0
79.46083,17.488913,277.76144,255.0
79.89851,17.467455,277.3511,255.0
81.02175,17.595156,279.30823,255.0
82.66443,17.833221,283.01544,255.0
83.41908,17.877848,283.65106,255.0
83.94286,17.872726,283.49686,255.0
84.50532,17.875854,283.47293,255.0
85.30407,17.9286,284.2352,255.0
0.0,0.0,0.0,0.0
0.0,0.0,0.0,0.0
0.0,0.0,0.0,0.0
0.0,0.0,0.0,0.0
0.0,0.0,0.0,0.0
0.0,0.0,0.0,0.0
0.0,0.0,0.0,0.0
0.0,0.0,0.0,0.0
0.0,0.0,0.0,0.0
0.0,0.0,0.0,0.0
8.596149,4.6358814,72.53852,255.0
8.732724,4.635334,72.52224,255.0
8.220687,4.2958593,67.20372,255.0
8.138928,4.18817,65.511856,198.0
7.336583,3.7184951,58.158676,141.0
6.2340198,3.1128352,48.68042,125.0
6.2550035,3.0776942,48.125347,115.0
6.3694205,3.0888753,48.294563,111.0
6.0606623,2.8974304,45.29598,108.0
5.9985027,2.8275843,44.198776,106.0
5.894877,2.7403898,42.830612,102.0
6.6884212,3.0669641,47.928875,102.0
7.1814013,3.2487946,50.764088,102.0
8.773661,3.9165168,61.18987,103.0
12.111955,5.3359995,83.35654,109.0
16.44457,7.1512294,111.69873,124.0
19.711906,8.4628315,132.16797,139.0
22.203754,9.412672,146.9825,149.0
23.653534,9.902633,154.61258,162.0
25.879816,10.701654,167.06517,170.0
27.113077,11.075648,172.87975,184.0
28.976664,11.695078,182.52292,192.0
29.239605,11.66146,181.9725,205.0
30.17465,11.893539,185.56747,217.0
30.189314,11.761671,183.48344,221.0
30.248682,11.650034,181.71527,221.0
29.020267,11.050548,172.33907,212.0
28.117006,10.586895,165.08342,204.0
26.605337,9.906942,154.4574,191.0
24.716997,9.103134,141.90364,182.0
21.30879,7.7630124,120.99449,167.0
19.310766,6.9598193,108.45893,155.0
16.327705,5.8223763,90.71915,146.0
14.136183,4.9880705,77.707306,138.0
11.598749,4.050275,63.087536,130.0
10.199117,3.5249703,54.896374,125.0
9.35005,3.1986895,49.806797,124.0
9.400751,3.1836889,49.56497,116.0
8.8921175,2.981447,46.408577,115.0
9.039685,3.001042,46.70565,114.0
9.030714,2.968792,46.195816,114.0
9.134809,2.9739761,46.26846,111.0
8.76607,2.8265967,43.96787,111.0
8.929371,2.8519397,44.354244,108.0
8.530294,2.6988769,41.96628,106.0
8.764748,2.7472382,42.71059,105.0
9.177959,2.8502212,44.303585,103.0
9.419586,2.898522,45.046104,103.0
9.93742,3.0301692,47.083336,103.0
10.358248,3.1301398,48.627605,103.0
11.590843,3.4714541,53.919865,103.0
13.43359,3.9878778,61.929363,105.0
17.863798,5.256668,81.61727,110.0
22.278883,6.4990554,100.88759,120.0
28.89047,8.355341,129.67816,131.0
33.17677,9.513238,147.6201,141.0
37.11615,10.552934,163.72093,155.0
41.787292,11.7815275,182.74503,168.0
45.431564,12.702595,196.99208,183.0
48.798016,13.5314455,209.8032,195.0
52.05586,14.316882,221.9357,209.0
54.23455,14.795188,229.30278,220.0
57.584614,15.582782,241.4589,233.0
58.642418,15.7424555,243.88177,243.0
61.516407,16.383295,253.75583,255.0
62.909767,16.622837,257.411,255.0
64.39326,16.882275,261.37216,255.0
65.97962,17.16446,265.6833,255.0
66.48455,17.163137,265.6047,255.0
67.38018,17.261927,267.07462,255.0
68.15762,17.32917,268.05542,255.0
68.85948,17.376328,268.7247,255.0
69.255714,17.34623,268.19876,255.0
70.73084,17.584808,271.82574,255.0
71.08477,17.543177,271.12015,255.0
71.6111,17.544386,271.07632,255.0
72.74801,17.694086,273.32578,255.0
73.2903,17.698046,273.323,255.0
73.98748,17.73908,273.89215,255.0
74.758804,17.797184,274.72403,255.0
75.35227,17.812424,274.8936,255.0
76.27457,17.904636,276.25012,255.0
76.370155,17.802853,274.61313,255.0
76.59527,17.732452,273.4604,255.0
77.86985,17.904312,276.04288,255.0
78.555214,17.939276,276.51346,255.0
79.50615,18.034006,277.90433,255.0
80.13372,18.054605,278.15198,255.0
81.43651,18.226051,280.72235,255.0
82.6209,18.368902,282.85065,255.0
83.555626,18.454727,284.0995,255.0
83.95064,18.421003,283.50723,255.0
84.66967,18.458353,284.00836,255.0
85.2988,18.475746,284.20175,255.0
0.0,0.0,0.0,0.0
0.0,0.0,0.0,0.0
0.0,0.0,0.0,0.0
0.0,0.0,0.0,0.0
0.0,0.0,0.0,0.0
0.0,0.0,0.0,0.0
0.0,0.0,0.0,0.0
0.0,0.0,0.0,0.0
0.0,0.0,0.0,0.0
0.0,0.0,0.0,0.0
8.246403,4.5791655,69.58317,255.0
8.37742,4.5786247,69.56755,255.0
8.098217,4.3573737,66.19871,255.0
7.772573,4.118275,62.55938,190.0
7.278979,3.7987218,57.698708,137.0
6.3611917,3.2705445,49.670624,122.0
6.1310406,3.1061738,47.16887,115.0
6.118311,3.0551019,46.387913,111.0
5.8907566,2.8997312,44.023598,107.0
6.1822977,3.0006583,45.550407,102.0
6.3177576,3.0240881,45.90051,102.0
6.631207,3.1309173,47.516144,101.0
7.641341,3.5593982,54.012207,101.0
10.043058,4.6161427,70.038956,104.0
13.502814,6.125195,92.92332,113.0
16.955505,7.5921197,115.1626,126.0
19.730844,8.722218,132.28731,139.0
21.124947,9.2209635,139.83304,147.0
22.229858,9.58265,145.2983,157.0
24.983637,10.637505,161.27066,169.0
26.064518,10.963125,166.1843,180.0
27.536089,11.443302,173.4388,191.0
28.962519,11.893569,180.23767,203.0
29.256842,11.873829,179.91278,212.0
30.291142,12.151392,184.09172,215.0
28.575115,11.331916,171.65164,210.0
27.638739,10.836657,164.1253,203.0
26.076313,10.109751,153.09308,194.0
24.162573,9.26422,140.26787,184.0
21.824766,8.276367,125.29173,172.0
18.852833,7.0720124,107.04304,161.0
15.868542,5.8888497,89.12055,149.0
13.908793,5.106927,77.27487,139.0
11.414439,4.147153,62.74213,131.0
9.501285,3.416259,51.676098,126.0
9.39793,3.344416,50.581104,124.0
8.810384,3.1034746,46.929348,123.0
8.489907,2.960509,44.76002,120.0
8.71973,3.0103736,45.50626,116.0
8.614042,2.9445655,44.50391,116.0
8.828688,2.9884734,45.15977,114.0
8.886636,2.9790032,45.008854,111.0
8.774436,2.9132228,44.007294,110.0
9.018898,2.9659834,44.79637,108.0
8.757087,2.852821,43.079548,104.0
8.800894,2.8404007,42.884266,104.0
8.982896,2.8723989,43.359486,104.0
9.325541,2.9547095,44.5938,103.0
10.16305,3.1909015,48.14959,103.0
10.557318,3.2849374,49.559303,103.0
11.935502,3.6807244,55.519997,104.0
14.73923,4.50527,67.944496,108.0
21.923237,6.642595,100.158516,113.0
25.624485,7.6967697,116.03112,127.0
31.608713,9.412671,141.87115,133.0
35.627205,10.518953,158.5142,147.0
39.425182,11.541991,173.8962,161.0
44.501736,12.919064,194.6047,175.0
47.819103,13.766799,207.33255,187.0
50.004936,14.277489,214.9799,199.0
52.43826,14.849917,223.55316,211.0
55.323906,15.540117,233.89508,223.0
57.08317,15.905369,239.34253,235.0
60.004837,16.58609,249.53345,252.0
61.95346,16.989206,255.54398,255.0
63.610233,17.306587,260.26218,255.0
65.36111,17.644419,265.28537,255.0
66.382515,17.781626,267.29025,255.0
66.87937,17.777298,267.16663,255.0
67.90077,17.911396,269.1226,255.0
69.109535,18.092518,271.78354,255.0
69.64835,18.096846,271.78763,255.0
69.422516,17.903904,268.82922,255.0
70.43891,18.031815,270.68826,255.0
70.79076,17.988974,269.98325,255.0
71.60653,18.063782,271.04343,255.0
72.27368,18.100285,271.528,255.0
73.08462,18.172016,272.54022,255.0
74.12562,18.29952,274.38776,255.0
74.59819,18.285877,274.11804,255.0
75.28712,18.325083,274.64008,255.0
76.2697,18.434721,276.2166,255.0
76.65886,18.40039,275.63538,255.0
76.861275,18.32202,274.3943,255.0
77.765724,18.41092,275.65787,255.0
78.824684,18.534943,277.44604,255.0
79.68944,18.61193,278.52896,255.0
80.69734,18.721096,280.0923,255.0
81.291405,18.733435,280.20602,255.0
82.27001,18.833641,281.63315,255.0
83.35707,18.957193,283.40808,255.0
84.230446,19.030846,284.4358,255.0
85.15992,19.116137,285.63638,255.0
85.16213,18.993517,283.73007,255.0
0.0,0.0,0.0,0.0
0.0,0.0,0.0,0.0
0.0,0.0,0.0,0.0
0.0,0.0,0.0,0.0
0.0,0.0,0.0,0.0
0.0,0.0,0.0,0.0
0.0,0.0,0.0,0.0
0.0,0.0,0.0,0.0
0.0,0.0,0.0,0.0
0.0,0.0,0.0,0.0
8.675612,4.9562683,73.200485,255.0
8.813449,4.9556837,73.18406,255.0
7.7651296,4.2985015,63.472126,255.0
7.653876,4.172199,61.600353,180.0
7.3470573,3.9446948,58.23488,133.0
6.668084,3.5270834,52.06386,117.0
5.907063,3.078905,45.443005,115.0
6.0045033,3.0846395,45.522335,109.0
5.9509053,3.0137205,44.470474,106.0
6.1757517,3.0838244,45.499474,102.0
6.572524,3.2366593,47.74863,101.0
6.725405,3.2668624,48.188263,101.0
6.9630723,3.3368855,49.214996,101.0
10.14606,4.797822,70.753075,104.0
13.232803,6.175626,91.05975,117.0
16.854658,7.7643614,114.47083,127.0
18.530958,8.427771,124.23519,135.0
20.148516,9.0481,133.3618,143.0
21.86252,9.69578,142.88882,151.0
23.276922,10.19632,150.24483,163.0
24.881662,10.767078,158.63315,175.0
27.312399,11.67731,172.01965,187.0
28.388493,11.993669,176.65495,200.0
28.317108,11.823505,174.12366,205.0
28.021349,11.564674,170.28717,209.0
26.721817,10.902232,160.5093,202.0
25.787384,10.402039,153.12244,194.0
23.583635,9.40674,138.45047,186.0
21.417883,8.448438,124.32707,175.0
19.457697,7.591294,111.696236,165.0
16.199224,6.251654,91.97086,152.0
13.843051,5.285178,77.740425,142.0
11.239505,4.245724,62.441055,133.0
9.207749,3.4417832,50.609543,130.0
9.178741,3.3953629,49.918877,126.0
9.047101,3.3123186,48.69,124.0
8.464486,3.0675287,45.084217,123.0
8.429803,3.0242355,44.440506,120.0
8.676204,3.0816398,45.276424,118.0
8.674195,3.0505507,44.812027,117.0
8.758041,3.049967,44.795753,114.0
8.726897,3.009736,44.197197,111.0
8.88989,3.0365882,44.5837,108.0
8.153411,2.758606,40.495144,107.0
8.683765,2.9104364,42.716324,104.0
8.818669,2.9281347,42.96833,104.0
9.241589,3.0402565,44.605522,103.0
9.801451,3.1949673,46.86677,103.0
10.322639,3.3343835,48.90279,103.0
11.422075,3.6564028,53.615566,103.0
13.690385,4.3435397,63.679356,106.0
15.599522,4.9056087,71.90599,109.0
23.94219,7.46333,109.37583,118.0
28.674309,8.860986,129.83344,130.0
32.996372,10.108997,148.09068,144.0
39.208366,11.909827,174.43733,152.0
41.602642,12.530368,183.48962,166.0
46.12694,13.776686,201.69972,182.0
47.86725,14.17771,207.52902,195.0
50.435997,14.815479,216.82025,203.0
52.674572,15.346628,224.54729,217.0
56.96989,16.463537,240.83963,226.0
58.286667,16.708645,244.37413,239.0
61.324284,17.439207,255.00533,255.0
62.02468,17.498812,255.82256,255.0
64.60313,18.083168,264.3089,255.0
65.88097,18.2972,267.37955,255.0
66.20211,18.244265,266.54803,255.0
66.94149,18.306519,267.39893,255.0
68.06381,18.471746,269.7528,255.0
68.93625,18.56717,271.08597,255.0
70.063034,18.729147,273.38965,255.0
70.03429,18.58212,271.1822,255.0
70.3883,18.538069,270.47772,255.0
70.959785,18.551516,270.61185,255.0
71.473564,18.549788,270.5241,255.0
72.70335,18.732565,273.12613,255.0
73.24533,18.736769,273.1234,255.0
73.91837,18.774197,273.60437,255.0
74.37753,18.757154,273.29102,255.0
75.72871,18.963724,276.23456,255.0
76.3133,18.976782,276.35812,255.0
76.837296,18.974695,276.2606,255.0
77.841255,19.090342,277.87637,255.0
78.405106,19.097204,277.90784,255.0
79.21872,19.164396,278.81644,255.0
80.17392,19.264694,280.20572,255.0
80.56569,19.22917,279.6187,255.0
81.197044,19.250921,279.86417,255.0
82.12383,19.341963,281.11606,255.0
83.18417,19.46305,282.80344,255.0
84.26381,19.587044,284.53162,255.0
84.997826,19.629606,285.0758,255.0
85.327156,19.578758,284.263,255.0
0.0,0.0,0.0,0.0
0.0,0.0,0.0,0.0
0.0,0.0,0.0,0.0
0.0,0.0,0.0,0.0
0.0,0.0,0.0,0.0
0.0,0.0,0.0,0.0
0.0,0.0,0.0,0.0
0.0,0.0,0.0,0.0
0.0,0.0,0.0,0.0
0.0,0.0,0.0,0.0
8.771711,5.151471,74.00679,255.0
8.812852,5.0940876,73.17462,255.0
7.953038,4.5257835,65.004105,255.0
7.9459867,4.4527035,63.947422,171.0
6.7809997,3.7427094,53.74486,130.0
6.783591,3.6886442,52.962494,115.0
5.983143,3.205875,46.025475,111.0
5.8011746,3.0636265,43.97814,107.0
5.7749543,3.0064986,43.15297,105.0
5.991177,3.0754218,44.136944,102.0
6.179995,3.1285677,44.89421,101.0
6.6492467,3.3203013,47.639668,101.0
7.4421177,3.6663144,52.597683,102.0
10.190722,4.953868,71.06018,105.0
12.910297,6.1938148,88.83506,118.0
16.228573,7.6852674,110.21195,126.0
17.654388,8.253923,118.35127,132.0
19.26081,8.891641,127.47836,141.0
20.680668,9.428447,135.15623,149.0
22.716347,10.229382,146.61754,159.0
24.660732,10.970277,157.21503,171.0
26.186918,11.509609,164.92108,186.0
26.199644,11.37885,163.0243,198.0
28.219954,12.112865,173.51564,201.0
26.433584,11.214856,160.62843,201.0
25.498306,10.694343,153.15071,194.0
23.216171,9.627093,137.84647,186.0
20.815342,8.535037,122.19141,178.0
19.184908,7.7795253,111.358246,168.0
16.511293,6.62215,94.77671,156.0
12.872996,5.1070952,73.081795,147.0
10.569613,4.1483994,59.353683,140.0
9.856135,3.8274097,54.752407,132.0
9.117261,3.5033875,50.109123,127.0
8.839718,3.361517,48.07215,126.0
8.788017,3.3075578,47.292767,124.0
8.480755,3.1594865,45.168118,121.0
8.420726,3.1055727,44.38995,120.0
8.55536,3.1238089,44.643078,118.0
8.396051,3.0354164,43.37245,118.0
8.407151,3.009755,42.998386,114.0
8.655576,3.0687308,43.83332,110.0
8.933912,3.1370792,44.801743,108.0
8.792477,3.0581295,43.666496,104.0
8.819563,3.0387254,43.381676,104.0
8.827248,3.0130599,43.007504,103.0
9.490968,3.2097313,45.806385,102.0
9.810131,3.2873461,46.905415,102.0
10.953511,3.6372466,51.888332,103.0
12.372286,4.0714927,58.072334,104.0
14.380169,4.6901517,66.883736,106.0
19.488407,6.300177,89.826324,115.0
25.892511,8.297321,118.27834,123.0
30.23739,9.605684,136.90251,138.0
35.85284,11.291731,160.90096,149.0
39.8463,12.442562,177.26468,159.0
42.841164,13.264759,188.94063,171.0
46.35785,14.233397,202.69704,186.0
49.76175,15.151602,215.72948,198.0
52.076782,15.725868,223.8602,212.0
54.901688,16.443455,234.02702,223.0
56.493248,16.783009,238.81006,235.0
59.79697,17.621656,250.69098,249.0
61.39484,17.948236,255.28314,255.0
62.902344,18.243435,259.4267,255.0
64.90218,18.675665,265.51627,255.0
66.21502,18.905012,268.71887,255.0
66.318665,18.788246,267.001,255.0
67.56877,18.99557,269.88815,255.0
68.13738,19.00961,270.0279,255.0
68.68413,19.017374,270.07803,255.0
69.72973,19.162106,272.07242,255.0
69.74424,19.023447,270.0426,255.0
70.2571,19.021757,269.95712,255.0
70.78134,19.023146,269.91486,255.0
71.44543,19.061823,270.40112,255.0
72.980225,19.330568,274.14954,255.0
73.76059,19.397055,275.02792,255.0
73.71101,19.245893,272.8202,255.0
73.95301,19.172462,271.7146,255.0
75.40984,19.412794,275.05466,255.0
76.138054,19.46351,275.7067,255.0
76.92997,19.52969,276.5769,255.0
77.86062,19.629934,277.92853,255.0
78.36266,19.621485,277.74042,255.0
79.57514,19.78983,280.0538,255.0
80.1434,19.796764,280.08197,255.0
80.66135,19.79126,279.93362,255.0
81.40778,19.841515,280.5734,255.0
82.131096,19.885506,281.12378,255.0
83.4104,20.062647,283.55527,255.0
83.96005,20.063116,283.48862,255.0
84.93993,20.165716,284.86426,255.0
85.190186,20.094885,283.78937,255.0
0.0,0.0,0.0,0.0
0.0,0.0,0.0,0.0
0.0,0.0,0.0,0.0
0.0,0.0,0.0,0.0
0.0,0.0,0.0,0.0
0.0,0.0,0.0,0.0
0.0,0.0,0.0,0.0
0.0,0.0,0.0,0.0
0.0,0.0,0.0,0.0
0.0,0.0,0.0,255.0
8.5025425,5.1293893,71.73131,255.0
8.370264,4.970031,69.49536,255.0
8.462331,4.9467587,69.16246,238.0
7.495268,4.3145266,60.316353,161.0
6.9119115,3.918868,54.778996,127.0
6.7831197,3.788844,52.955482,115.0
6.406283,3.5260904,49.27739,109.0
5.8127074,3.1533232,44.062798,107.0
5.9379835,3.1755698,44.368404,104.0
6.1073847,3.2204611,44.99021,100.0
6.291581,3.2718062,45.701946,99.0
6.86957,3.5237489,49.215115,99.0
7.4160285,3.7529683,52.409996,102.0
10.494484,5.2404785,73.17371,105.0
12.607502,6.213288,86.746086,118.0
14.066886,6.8430104,95.525444,123.0
15.909389,7.640676,106.64646,131.0
18.673166,8.855149,123.581245,138.0
19.595572,9.1770735,128.05666,147.0
21.561907,9.973987,139.15775,156.0
23.895277,10.9192915,152.32559,170.0
24.854017,11.221309,156.51685,183.0
25.05375,11.177547,155.88432,196.0
26.437883,11.657037,162.54803,198.0
24.31246,10.595892,147.72977,194.0
22.746023,9.799846,136.6111,188.0
20.652842,8.797422,122.618965,178.0
18.775417,7.9082904,110.209625,170.0
15.487869,6.451433,89.89325,159.0
12.993515,5.353228,74.57958,149.0
10.315099,4.2037697,58.556576,141.0
9.592797,3.8675685,53.86499,134.0
9.208661,3.6733825,51.152374,132.0
9.051273,3.572768,49.74333,127.0
8.830849,3.4496164,48.020916,125.0
8.612325,3.3297257,46.344368,123.0
8.505429,3.2549908,45.29669,121.0
8.530708,3.2318325,44.9669,119.0
8.717958,3.269886,45.48869,117.0
8.7510605,3.2499416,45.20353,117.0
8.634244,3.1752534,44.15708,112.0
8.716859,3.1746411,44.140892,108.0
8.888669,3.2062135,44.572063,107.0
8.665752,3.0961556,43.03444,104.0
9.318993,3.2982635,45.835396,102.0
9.120243,3.197871,44.432228,101.0
9.64771,3.3516178,46.559948,101.0
10.276566,3.5374541,49.13251,102.0
12.121547,4.1347537,57.41788,103.0
13.921419,4.706082,65.33948,105.0
16.671778,5.5856943,77.53739,109.0
21.944704,7.2875004,101.141594,117.0
28.066975,9.239143,128.20335,131.0
34.241066,11.173876,155.01979,143.0
38.28206,12.38525,171.79207,155.0
41.374817,13.27182,184.05307,167.0
44.906933,14.283157,198.03877,176.0
47.249973,14.90252,206.58487,191.0
50.476303,15.787862,218.81352,205.0
53.376034,16.557306,229.43086,219.0
55.55452,17.09227,236.79495,233.0
58.54845,17.867416,247.48235,247.0
61.010487,18.469076,255.76245,255.0
62.617752,18.804443,260.3517,255.0
63.080788,18.793604,260.14633,255.0
64.724304,19.131874,264.77197,255.0
66.21042,19.418701,268.68338,255.0
67.04012,19.510067,269.88873,255.0
67.66383,19.540535,270.2509,255.0
68.34481,19.586948,270.83292,255.0
68.90432,19.598114,270.92688,255.0
69.2037,19.535673,270.00305,255.0
70.058945,19.629906,271.24408,255.0
70.70051,19.663317,271.6438,255.0
71.112144,19.632755,271.1593,255.0
72.27985,19.80985,273.542,255.0
73.15127,19.903769,274.7748,255.0
73.75548,19.924152,274.9916,255.0
74.265366,19.918943,274.85474,255.0
74.24752,19.773258,272.7795,255.0
75.88729,20.067968,276.77875,255.0
76.09635,19.982859,275.53836,255.0
77.03471,20.089115,276.9361,255.0
77.90449,20.17614,278.06763,255.0
78.60507,20.218452,278.5821,255.0
79.24532,20.24478,278.87552,255.0
80.75306,20.490862,282.19482,255.0
81.27494,20.485167,282.0454,255.0
81.60562,20.431675,281.23758,255.0
82.07423,20.413187,280.91147,255.0
83.04402,20.518782,282.29202,255.0
83.92833,20.602005,283.3637,255.0
85.10359,20.755106,285.3952,255.0
85.14493,20.63147,283.62082,255.0
0.0,0.0,0.0,0.0
0.0,0.0,0.0,0.0
0.0,0.0,0.0,0.0
0.0,0.0,0.0,0.0
0.0,0.0,0.0,0.0
0.0,0.0,0.0,0.0
0.0,0.0,0.0,0.0
0.0,0.0,0.0,0.0
0.0,0.0,0.0,0.0
8.366814,5.26562,71.737404,255.0
8.501937,5.26501,71.721565,255.0
8.184159,4.988368,67.94581,255.0
7.735803,4.6419525,63.220478,220.0
7.978628,4.714534,64.20193,150.0
7.025656,4.088971,55.67686,117.0
6.313069,3.619782,49.28263,113.0
6.235239,3.5229394,47.95862,108.0
5.979381,3.3297453,45.323326,104.0
6.0344005,3.3126957,45.085915,102.0
6.1008105,3.302289,44.938877,100.0
6.4840355,3.4612906,47.096893,100.0
6.8123097,3.5870278,48.801743,99.0
8.029196,4.1710033,56.739666,103.0
9.943137,5.0968084,69.324936,108.0
11.589412,5.862986,79.735954,116.0
13.055479,6.519392,88.65146,122.0
14.837829,7.314991,99.456985,126.0
17.512938,8.52515,115.89524,136.0
18.103388,8.703046,118.29764,145.0
20.267866,9.623984,130.79773,154.0
22.07627,10.355555,140.72086,169.0
23.535566,10.907793,148.20439,183.0
23.726955,10.866288,147.61949,194.0
23.989437,10.857928,147.48476,194.0
21.25058,9.5070305,129.11655,187.0
19.656857,8.693474,118.05015,179.0
18.53697,8.105502,110.04962,170.0
15.157195,6.5535617,88.96532,161.0
12.620276,5.396337,73.24472,152.0
10.267197,4.342169,58.92739,144.0
9.625683,4.0268254,54.63939,138.0
9.016106,3.7314491,50.62352,134.0
8.803787,3.604998,48.900227,131.0
8.936269,3.6209064,49.10813,128.0
8.607401,3.451487,46.802814,125.0
8.16987,3.2424195,43.96061,123.0
8.100633,3.1822808,43.138115,120.0
8.453558,3.287527,44.557354,119.0
8.69157,3.3464334,45.348076,117.0
8.975918,3.4218419,46.362038,114.0
8.432235,3.1831932,43.121193,112.0
8.574796,3.2057135,43.41871,107.0
8.602475,3.1852646,43.134167,106.0
8.81826,3.2341921,43.788975,102.0
9.436513,3.4284227,46.410423,101.0
9.477404,3.4112248,46.169277,100.0
9.674795,3.4501545,46.687653,101.0
11.33144,4.004004,54.1724,103.0
12.318608,4.3134017,58.34757,104.0
13.815833,4.7942405,64.83973,106.0
18.550583,6.379984,86.26982,113.0
25.842207,8.809379,119.09723,121.0
31.480394,10.6375885,143.78578,138.0
35.606598,11.927625,161.19159,149.0
39.301563,13.052279,176.35576,160.0
41.451927,13.64917,184.3842,172.0
44.772556,14.618062,197.43344,180.0
49.93246,16.16621,218.29907,196.0
51.724014,16.607155,224.20787,210.0
54.79908,17.449537,235.53246,227.0
56.842922,17.952467,242.27101,238.0
58.775387,18.41235,248.42558,255.0
60.93203,18.9345,255.41708,255.0
62.13313,19.15375,258.32013,255.0
63.850502,19.527424,263.30368,255.0
65.413155,19.84828,267.5726,255.0
65.52881,19.728493,265.90024,255.0
66.925354,19.993202,269.4093,255.0
67.836334,20.10991,270.92242,255.0
68.08315,20.029444,269.77863,255.0
68.48327,19.994951,269.254,255.0
69.300735,20.081907,270.3642,255.0
69.88279,20.099861,270.54462,255.0
70.98281,20.265423,272.71088,255.0
71.76688,20.339008,273.63824,255.0
72.01826,20.261654,272.53442,255.0
73.18129,20.440048,274.8698,255.0
73.915726,20.497028,275.5713,255.0
74.26009,20.445795,274.81747,255.0
74.56581,20.38472,273.93124,255.0
76.01462,20.6348,277.22528,255.0
76.67402,20.66859,277.61212,255.0
76.79689,20.558279,276.0633,255.0
77.33269,20.559267,276.00888,255.0
78.48797,20.723803,278.14914,255.0
79.76355,20.917652,280.68115,255.0
80.684555,21.016523,281.93726,255.0
81.205986,21.010687,281.78796,255.0
81.574394,20.96559,281.11188,255.0
81.97881,20.930283,280.56683,255.0
82.986626,21.04848,282.0787,255.0
83.63727,21.075132,282.3628,255.0
84.497734,21.15396,283.34515,255.0
85.04704,21.15438,283.2765,255.0
0.0,0.0,0.0,0.0
0.0,0.0,0.0,0.0
0.0,0.0,0.0,0.0
0.0,0.0,0.0,0.0
0.0,0.0,0.0,0.0
0.0,0.0,0.0,0.0
0.0,0.0,0.0,0.0
0.0,0.0,0.0,0.0
0.0,0.0,0.0,0.0
8.551178,5.520647,73.313286,255.0
8.68928,5.520008,73.2971,255.0
7.9762435,4.987208,66.21527,255.0
7.5967116,4.676227,62.07964,204.0
7.494184,4.5426536,60.29973,145.0
6.973738,4.163586,55.261757,117.0
6.654611,3.9141676,51.94542,112.0
5.9936256,3.473894,46.09718,106.0
5.9849105,3.418907,45.36223,104.0
6.269991,3.5309315,46.84302,100.0
6.3642635,3.5338705,46.876377,100.0
6.620449,3.6253927,48.08454,99.0
6.8748827,3.7134764,49.246735,100.0
7.9646854,4.244359,56.280056,103.0
9.521395,5.0066876,66.38008,109.0
10.715811,5.561061,73.720634,113.0
13.393515,6.860946,90.94082,119.0
14.6213255,7.3944416,97.99929,126.0
15.943854,7.961807,105.50453,135.0
17.480946,8.620881,114.22268,143.0
19.3093,9.405647,124.6034,153.0
21.268599,10.234388,135.56352,169.0
22.02407,10.470929,138.67726,182.0
22.82747,10.724384,142.01385,189.0
20.889423,9.699041,128.41765,188.0
19.893177,9.129642,120.861084,181.0
18.194187,8.254438,109.25879,171.0
14.95883,6.709875,88.80116,162.0
12.428296,5.512465,72.943184,154.0
10.295347,4.5159264,59.74749,146.0
9.358048,4.059905,53.70588,141.0
9.007586,3.8655877,51.12743,137.0
8.759461,3.7188766,49.179253,134.0
8.7303915,3.6672883,48.489338,131.0
8.592566,3.5715756,47.21623,128.0
7.798081,3.2077312,42.399326,126.0
8.002552,3.2580564,43.05745,123.0
8.20108,3.3049634,43.67013,119.0
8.367901,3.3382776,44.102943,118.0
8.467649,3.344437,44.176853,117.0
8.749795,3.4218047,45.19109,113.0
8.694284,3.3669016,44.458336,110.0
8.00845,3.0713248,40.54832,107.0
8.343077,3.1690178,41.830734,103.0
8.565426,3.222614,42.53065,102.0
9.472184,3.5302825,46.582783,101.0
9.651015,3.5634491,47.011913,100.0
9.831465,3.5965958,47.440556,100.0
11.975138,4.3407683,57.245945,103.0
13.599426,4.884899,64.40996,105.0
17.950714,6.390004,84.23975,109.0
22.82687,8.05351,106.149734,119.0
28.026733,9.8008795,129.15636,131.0
33.878468,11.743665,154.72867,143.0
38.53655,13.242601,174.44397,158.0
40.8766,13.926059,183.41118,170.0
44.641125,15.079041,198.55707,178.0
45.526028,15.248068,200.74274,189.0
49.04377,16.288696,214.39961,203.0
52.807354,17.393007,228.88866,218.0
56.42858,18.432623,242.52019,233.0
58.141457,18.836967,247.78911,247.0
59.758495,19.203959,252.56415,255.0
61.48869,19.601118,257.73343,255.0
63.131527,19.964317,262.4536,255.0
64.53397,20.246347,266.10452,255.0
64.79081,20.16735,265.00937,255.0
65.644104,20.273794,266.35046,255.0
66.1835,20.282396,266.40533,255.0
67.24405,20.449348,268.53918,255.0
67.41951,20.346642,267.13126,255.0
68.10715,20.39889,267.75748,255.0
69.76015,20.737316,272.13852,255.0
70.04885,20.668165,271.16956,255.0
70.85122,20.750471,272.18726,255.0
71.53015,20.79568,272.71756,255.0
71.90808,20.753359,272.09952,255.0
73.17595,20.96663,274.8316,255.0
73.8867,21.018358,275.44485,255.0
74.45701,21.029678,275.52795,255.0
75.17153,21.08128,276.13818,255.0
76.37103,21.267204,278.50665,255.0
76.85062,21.251455,278.23312,255.0
77.31709,21.232325,277.9149,255.0
77.97944,21.266865,278.2988,255.0
79.36199,21.496012,281.22794,255.0
79.9573,21.510256,281.3443,255.0
80.70378,21.564697,281.98578,255.0
81.27588,21.572124,282.01178,255.0
82.24237,21.683432,283.39496,255.0
81.908875,21.45279,280.30887,255.0
83.160866,21.637695,282.65222,255.0
84.07176,21.732016,283.81085,255.0
84.752365,21.76597,284.18018,255.0
85.48693,21.81325,284.72278,255.0
0.0,0.0,0.0,0.0
0.0,0.0,0.0,0.0
0.0,0.0,0.0,0.0
0.0,0.0,0.0,0.0
0.0,0.0,0.0,0.0
0.0,0.0,0.0,0.0
0.0,0.0,0.0,0.0
0.0,0.0,0.0,0.0
0.0,0.0,0.0,0.0
8.550538,5.6592197,73.3028,255.0
8.457719,5.508183,71.338936,255.0
7.9265485,5.08092,65.79823,255.0
8.033849,5.0698237,65.64741,185.0
6.9591675,4.324559,55.991062,137.0
6.9903493,4.278584,55.38961,115.0
6.2715592,3.781739,48.952003,109.0
6.0167027,3.5750723,46.271515,106.0
5.954628,3.487255,45.129635,101.0
5.894317,3.4029481,44.033367,100.0
6.185821,3.52127,45.55895,100.0
6.4892955,3.6430461,47.128765,100.0
6.6536307,3.684458,47.658604,102.0
7.874604,4.3020144,55.63974,103.0
8.523276,4.5946894,59.417477,108.0
10.104783,5.3760004,69.512276,114.0
11.903714,6.2513185,80.8197,118.0
14.014419,7.265968,93.92512,126.0
15.240609,7.80226,100.84412,134.0
16.527328,8.3558235,107.9843,144.0
18.672173,9.324315,120.48382,155.0
19.60552,9.671664,124.95476,168.0
20.183638,9.837553,127.080124,182.0
20.798729,10.017317,129.3839,186.0
19.44504,9.255743,119.5302,185.0
17.424671,8.19812,105.856476,175.0
14.476332,6.733075,86.9266,165.0
12.570841,5.7807117,74.62011,156.0
10.626853,4.8321347,62.36605,147.0
9.210119,4.1416306,53.445904,141.0
8.527323,3.7926564,48.935013,139.0
8.650748,3.8059328,49.09867,138.0
8.670815,3.7739372,48.678253,134.0
8.745901,3.7663126,48.57218,132.0
8.567419,3.6507947,47.07485,128.0
8.259569,3.4831176,44.905457,126.0
7.9852805,3.3328888,42.961605,123.0
8.175205,3.377497,43.529396,119.0
8.146186,3.3316615,42.931484,117.0
8.389729,3.397103,43.767357,115.0
8.506349,3.4103675,43.930748,112.0
8.413475,3.3402023,43.01949,108.0
8.493978,3.3395596,43.00372,104.0
8.369219,3.2589986,41.958954,102.0
8.591801,3.3139386,42.65872,101.0
9.307858,3.5563955,45.771545,101.0
9.6502905,3.65291,47.0052,101.0
10.932286,4.1000156,52.748856,102.0
12.9923315,4.828078,62.10432,105.0
15.841249,5.8334513,75.022644,108.0
21.989876,8.024971,103.187874,114.0
23.515665,8.505451,109.34536,123.0
31.65226,11.347458,145.85406,135.0
34.851616,12.385234,159.16238,150.0
40.44263,14.247586,183.05983,166.0
43.74133,15.277312,196.25174,177.0
45.028023,15.59276,200.26434,187.0
48.448494,16.63554,213.61458,202.0
50.2811,17.120203,219.7938,211.0
53.49049,18.061697,231.83391,225.0
55.773067,18.677307,239.68661,238.0
57.272186,19.022633,244.06784,255.0
60.982918,20.090986,257.72156,255.0
62.14042,20.307747,260.4475,255.0
63.340168,20.534748,263.30313,255.0
64.61516,20.78235,266.42117,255.0
65.19765,20.805084,266.65527,255.0
65.846596,20.848503,267.15393,255.0
66.35452,20.84694,267.0756,255.0
67.03956,20.900612,267.70438,255.0
66.93445,20.709002,265.1913,255.0
68.090805,20.907625,267.67505,255.0
69.15457,21.075045,269.75775,255.0
70.34026,21.276855,272.27914,255.0
70.1909,21.074827,269.63223,255.0
71.524796,21.317842,272.67862,255.0
72.70694,21.51242,275.1037,255.0
73.49913,21.589632,276.0266,255.0
73.88117,21.546122,275.40555,255.0
74.24913,21.499151,274.74005,255.0
75.4535,21.693316,277.15512,255.0
76.08785,21.722015,277.4551,255.0
76.69914,21.743774,277.66583,255.0
77.25019,21.748266,277.65552,255.0
78.30595,21.893808,279.44504,255.0
78.947205,21.922262,279.73904,255.0
79.90144,22.03664,281.12863,255.0
80.74796,22.11997,282.12097,255.0
81.130844,22.076021,281.48944,255.0
82.109085,22.193575,282.91647,255.0
82.52973,22.159851,282.41437,255.0
82.94864,22.126104,281.9117,255.0
84.06549,22.277754,283.77036,255.0
84.38098,22.216448,282.91568,255.0
85.27066,22.306131,283.98315,255.0
0.0,0.0,0.0,0.0
0.0,0.0,0.0,0.0
0.0,0.0,0.0,0.0
0.0,0.0,0.0,0.0
0.0,0.0,0.0,0.0
0.0,0.0,0.0,0.0
0.0,0.0,0.0,0.0
0.0,0.0,0.0,0.0
0.0,0.0,0.0,255.0
8.481185,5.751178,72.70317,255.0
8.44633,5.6358604,71.2379,255.0
8.54234,5.610121,70.90496,245.0
7.2243686,4.670961,59.028732,174.0
6.9923854,4.451917,56.25439,131.0
6.635753,4.1612954,52.576214,115.0
6.462339,3.9924827,50.4376,106.0
5.7045484,3.4728398,43.86782,106.0
5.8109837,3.4867117,44.037895,102.0
5.9362235,3.5113115,44.343334,100.0
5.988985,3.4929519,44.106163,100.0
6.3457074,3.6499305,46.082733,100.0
6.8549194,3.8891501,49.096966,102.0
7.260439,4.063905,51.29665,105.0
8.516144,4.7035975,59.363625,108.0
9.74971,5.314489,67.064995,113.0
11.736651,6.3149657,79.679886,119.0
