X,Y,Z,Intensity
7.027756,7.2871943,62.1729,6.0
6.2889524,6.41329,54.7113,6.0
8.37001,8.396652,71.62374,5.0
7.240392,7.147181,60.959236,5.0
7.050537,6.8501267,58.419323,5.0
6.5248647,6.2410755,53.21938,5.0
5.715696,5.383602,45.90236,6.0
5.30641,4.9229093,41.9696,7.0
5.784713,5.2871084,45.069374,7.0
6.603419,5.9472485,50.69077,7.0
6.7704563,6.009918,51.218884,7.0
6.1603875,5.3907843,45.936886,7.0
6.2469816,5.3900757,45.925274,7.0
6.246609,5.315385,45.28331,7.0
6.3004766,5.2882524,45.04654,7.0
6.385357,5.287527,45.03467,7.0
5.927247,4.843146,41.244522,6.0
6.103166,4.9216757,41.907845,6.0
6.354559,5.0582542,43.06514,6.0
7.7389097,6.081698,51.771675,5.0
8.611863,6.6825547,56.878914,4.0
8.953098,6.8610053,58.389828,4.0
8.965402,6.786099,57.74436,4.0
7.789872,5.824817,49.557667,4.0
7.026262,5.190887,44.15792,3.0
8.4459505,6.1658554,52.44428,3.0
11.329451,8.174141,69.51585,3.0
11.667213,8.3204775,70.74996,3.0
10.54395,7.4334483,63.19807,2.0
7.834487,5.4608493,46.420353,2.0
6.3083386,4.3479314,36.9543,2.0
8.4109535,5.7330427,48.71927,2.0
9.831016,6.627713,56.31342,2.0
13.4834175,8.991715,76.387535,2.0
13.403379,8.842699,75.10968,2.0
15.464377,10.094403,85.72787,3.0
22.325418,14.420293,122.446144,3.0
21.57534,13.791328,117.086266,3.0
21.420765,13.552018,115.035515,3.0
27.644487,17.311861,146.92616,4.0
34.03883,21.101868,179.06177,4.0
34.914646,21.429338,181.80954,4.0
34.156593,20.757431,176.07863,4.0
40.672886,24.476202,207.58766,5.0
40.029995,23.856459,202.29593,5.0
45.182053,26.669096,226.10617,6.0
46.666363,27.283997,231.27798,6.0
50.156807,29.04923,246.1968,6.0
48.136982,27.61993,234.04053,7.0
49.258926,28.003044,237.24316,7.0
51.567474,29.047556,246.04657,7.0
53.918457,30.096838,254.88663,7.0
53.33283,29.502802,249.80852,8.0
55.96337,30.68264,259.74887,9.0
55.754173,30.29847,256.44717,8.0
55.92221,30.124218,254.92274,9.0
56.919376,30.395756,257.17014,9.0
58.17261,30.798191,260.52347,9.0
60.09757,31.54637,266.79907,9.0
57.162533,29.75235,251.57573,9.0
57.805096,29.834871,252.22229,9.0
58.276173,29.828245,252.11462,9.0
61.33659,31.136145,263.11496,8.0
60.995773,30.71022,259.46167,8.0
64.24741,32.08527,271.0222,7.0
61.942814,30.68572,259.14542,8.0
61.276302,30.113506,254.25874,8.0
60.731144,29.609507,249.94955,8.0
61.19718,29.602554,249.8367,8.0
62.588917,30.040003,253.47325,8.0
66.123764,31.491344,265.66098,8.0
66.773544,31.556948,266.15533,8.0
68.773315,32.254696,271.9794,8.0
68.6625,31.959518,269.4297,8.0
71.07462,32.834274,276.74133,8.0
69.00482,31.64091,266.62213,8.0
72.41399,32.958893,277.66412,8.0
69.60388,31.447628,264.8709,8.0
75.86607,34.02747,286.53284,8.0
73.587395,32.76695,275.8535,8.0
75.31503,33.295647,280.23788,8.0
74.27982,32.60409,274.3517,8.0
76.5354,33.35655,280.61578,8.0
79.40432,34.36387,289.0199,8.0
78.959045,33.93285,285.32507,8.0
79.75704,34.0384,286.1422,8.0
79.13326,33.539883,281.88165,8.0
79.816864,33.598507,282.30396,8.0
81.70942,34.16179,286.96478,8.0
81.80292,33.970383,285.28476,8.0
83.71851,34.533127,289.93692,8.0
81.29911,33.31213,279.6139,8.0
81.6382,33.230076,278.8532,8.0
82.2573,33.26233,279.0514,8.0
85.50234,34.349087,288.0933,8.0
81.8846,32.682606,274.04407,7.0
84.85292,33.649357,282.07562,7.0
10.484944,12.521805,105.18984,7.0
9.623122,11.277669,94.72982,7.0
8.333641,9.587215,80.522934,7.0
8.8762245,10.027359,84.211754,7.0
8.177318,9.074252,76.20006,7.0
7.6060047,8.293433,69.63641,6.0
5.6199765,6.0231204,50.568535,6.0
6.011436,6.334341,53.17609,6.0
6.9782743,7.2315307,60.70166,6.0
7.878613,8.031739,67.41159,6.0
7.732558,7.756674,65.096016,6.0
7.2021523,7.1107993,59.669235,7.0
5.6671333,5.5084705,46.218464,7.0
5.4511814,5.2176404,43.773403,7.0
5.6876354,5.36207,44.980015,7.0
6.588031,6.118878,51.32266,7.0
6.6848273,6.1181087,51.310238,7.0
6.7220464,6.0636187,50.84725,7.0
6.836036,6.0789437,50.969658,7.0
6.766785,5.933171,49.74137,7.0
6.8605475,5.93238,49.72862,7.0
6.84099,5.8349547,48.905846,7.0
6.9969335,5.8878284,49.342762,7.0
6.3919005,5.3074327,44.473072,7.0
6.9995003,5.7359424,48.057487,6.0
7.090022,5.7351236,48.044308,6.0
9.3433895,7.461558,62.498672,4.0
9.325045,7.353199,61.582733,4.0
9.158654,7.1322427,59.724075,4.0
7.7584324,5.9676657,49.965206,4.0
7.725479,5.8702617,49.142796,4.0
6.1258526,4.5990047,38.495033,3.0
10.77114,7.9907336,66.87521,3.0
13.476842,9.881014,82.68315,2.0
12.094655,8.765057,73.33418,2.0
11.066135,7.9279904,66.32089,2.0
9.512211,6.737694,56.355103,2.0
9.618154,6.7365823,56.337246,2.0
11.339566,7.8544664,65.67589,2.0
11.017597,7.5480103,63.103626,2.0
13.568744,9.195228,76.862785,2.0
14.678963,9.841158,82.24905,2.0
20.044107,13.295824,111.10414,3.0
25.273148,16.58877,138.59857,3.0
20.683596,13.435532,112.234985,4.0
25.96813,16.695139,139.44135,4.0
29.657694,18.873526,157.60933,4.0
33.508816,21.109882,176.25493,4.0
35.06487,21.870255,182.57245,4.0
43.584236,26.915901,224.65468,4.0
41.90005,25.623243,213.82822,5.0
42.539104,25.762577,214.95319,6.0
42.54139,25.517292,212.86884,6.0
44.51309,26.44675,220.58298,6.0
46.24164,27.21564,226.95496,7.0
45.68734,26.63914,222.10689,8.0
47.87691,27.658398,230.56256,8.0
51.05823,29.226727,243.59096,8.0
49.680527,28.180605,234.82794,8.0
52.359016,29.43343,245.2212,8.0
52.817913,29.427326,245.1235,8.0
55.73811,30.780546,256.34613,8.0
52.732006,28.866,240.35463,8.0
58.33664,31.657385,263.54556,8.0
57.63121,31.005962,258.07144,9.0
59.04222,31.494595,262.08612,9.0
59.421257,31.429142,261.48877,9.0
58.417652,30.639597,254.86801,9.0
59.927296,31.170395,259.23026,9.0
65.8996,33.994522,282.65884,8.0
66.219345,33.880444,281.65164,8.0
64.7641,32.867405,273.1728,8.0
65.51683,32.982178,274.0687,8.0
65.080635,32.501366,270.01572,8.0
62.27983,30.856611,256.29623,8.0
62.109085,30.530508,253.53265,8.0
62.581726,30.523281,253.41725,8.0
64.90889,31.41369,260.75238,8.0
65.250984,31.337103,260.05893,8.0
67.450935,32.147133,266.7215,8.0
70.1359,33.17433,275.18204,8.0
70.93082,33.298843,276.15213,8.0
71.05771,33.110214,274.525,8.0
71.84377,33.229256,275.44846,8.0
71.64013,32.892143,272.59073,7.0
72.54255,33.064064,273.95142,7.0
73.871796,33.426632,276.8902,8.0
75.01155,33.69887,279.079,8.0
74.48508,33.22401,275.08066,8.0
74.79282,33.125328,274.19757,8.0
77.04769,33.88434,280.4123,8.0
78.94999,34.478798,285.26212,8.0
76.34375,33.109688,273.86734,7.0
78.79258,33.936684,280.6383,7.0
79.31316,33.92754,280.4927,7.0
82.172966,34.912357,288.56213,8.0
82.23197,34.70196,286.75064,8.0
82.360016,34.52332,285.2018,8.0
81.28981,33.848114,279.55222,8.0
81.5778,33.743618,278.61728,8.0
84.49651,34.721527,286.61734,8.0
85.90633,35.070675,289.42374,8.0
80.24892,32.548843,268.54144,8.0
84.84322,34.19079,282.01343,7.0
10.339554,12.545028,103.71998,7.0
8.253987,9.827344,81.24328,7.0
8.430867,9.853691,81.453545,7.0
8.380008,9.617712,79.49537,7.0
8.176364,9.217842,76.18292,7.0
7.767874,8.604963,71.1107,6.0
5.8601484,6.3806477,52.723896,6.0
6.3015766,6.7459254,55.73659,6.0
6.9774604,7.3459625,60.68801,6.0
7.2554927,7.5144277,62.073284,6.0
6.510022,6.6344357,54.798252,7.0
7.05979,7.081367,58.483448,7.0
6.0700355,5.9941564,49.49899,8.0
5.332665,5.1855764,42.817078,7.0
6.444854,6.1728125,50.962883,7.0
7.4721174,7.0506506,58.20366,7.0
7.9516087,7.3935213,61.02699,7.0
8.019078,7.3489313,60.65178,7.0
6.8352385,6.1751394,50.958202,7.0
6.3312564,5.6398015,46.534855,7.0
6.4189844,5.6390495,46.52293,7.0
6.462627,5.6001177,46.19597,7.0
8.297126,7.0932374,58.505474,7.0
7.3669524,6.21458,51.251682,6.0
7.0772467,5.8921194,48.586033,6.0
6.5321383,5.3680944,44.259136,6.0
8.489334,6.8876047,56.779697,5.0
9.317154,7.4641128,61.523983,4.0
9.9080925,7.8388815,64.60423,4.0
10.1273,7.913959,65.21396,4.0
11.138909,8.598929,70.848434,3.0
9.194844,7.0131207,57.774433,3.0
10.755436,8.106298,66.7705,3.0
10.778751,8.028816,66.122696,3.0
11.095326,8.169042,67.267654,2.0
9.352782,6.8073435,56.046482,2.0
10.471281,7.5352798,62.03043,2.0
9.502359,6.761595,55.652992,2.0
10.271659,7.228208,59.484425,2.0
10.375644,7.2215514,59.420414,2.0
13.164408,9.06346,74.5643,3.0
18.851366,12.839955,105.61643,3.0
22.485489,15.153074,124.623245,3.0
28.855776,19.242325,158.22874,4.0
27.193445,17.945807,147.54335,4.0
26.696976,17.437386,143.33958,4.0
30.217072,19.536104,160.5647,4.0
36.788364,23.54546,193.48436,4.0
39.627586,25.110144,206.30692,5.0
41.494057,26.033672,213.8578,5.0
47.066536,29.241646,240.16841,5.0
44.42141,27.331493,224.44041,6.0
41.59275,25.346071,208.09958,6.0
46.745407,28.215885,231.6202,7.0
49.283585,29.468483,241.85881,7.0
47.210537,27.9662,229.48712,8.0
50.40204,29.581432,242.69676,8.0
49.160408,28.589073,234.51144,8.0
51.846764,29.878305,245.04079,9.0
54.857193,31.32948,256.89362,9.0
54.79255,31.014252,254.26022,8.0
56.175606,31.516802,258.33035,8.0
56.54205,31.445185,257.69318,8.0
54.638195,30.123146,246.81061,8.0
57.654186,31.512924,258.14648,9.0
59.035328,31.99306,262.02728,9.0
59.394196,31.915754,261.34152,9.0
59.344597,31.62209,258.88425,8.0
60.657036,32.053043,262.3586,8.0
66.09821,34.640682,283.48022,8.0
66.066055,34.34101,280.96933,8.0
63.49893,32.7392,267.80746,8.0
64.45294,32.96399,269.58917,8.0
65.42433,33.19401,271.4124,8.0
67.46464,33.95843,277.60303,8.0
67.46347,33.691334,275.35983,8.0
66.40842,32.906178,268.88397,8.0
64.79158,31.856941,260.25308,8.0
64.60212,31.520222,257.4451,8.0
67.64358,32.753036,267.4544,8.0
67.86119,32.61025,266.2284,8.0
68.63947,32.737,267.20248,8.0
68.47658,32.416317,264.5245,8.0
73.09667,34.34788,280.2219,8.0
72.659546,33.892174,276.43982,7.0
73.24351,33.915913,276.5687,7.0
73.3479,33.718838,274.89682,7.0
73.835335,33.699417,274.67328,7.0
74.357666,33.696087,274.58044,7.0
72.45273,32.600628,265.58987,7.0
67.408875,30.118101,245.30577,8.0
74.19031,32.91685,268.0355,8.0
78.48204,34.57985,281.5077,8.0
80.56417,35.253086,286.9173,8.0
80.39182,34.93736,284.2767,7.0
82.18829,35.47573,288.58484,8.0
80.08074,34.33307,279.21896,7.0
81.44286,34.683304,281.99545,8.0
81.28036,34.383907,279.48953,8.0
84.00681,35.302505,286.8823,8.0
84.74366,35.378433,287.42462,8.0
85.45677,35.44352,287.8781,8.0
82.98449,34.195164,277.66568,8.0
83.49824,34.1854,277.51282,8.0
10.266255,12.651553,102.97335,7.0
8.018916,9.69728,78.92079,7.0
8.228824,9.768468,79.49278,7.0
8.712273,10.155955,82.63824,6.0
9.449924,10.820801,88.03958,7.0
7.668325,8.627987,70.191666,6.0
5.864471,6.485554,52.756985,6.0
6.260015,6.8065934,55.362896,6.0
6.2608156,6.6949043,54.44885,7.0
6.026196,6.3391986,51.55055,7.0
7.403937,7.6638403,62.315952,8.0
6.193592,6.3100114,51.302208,8.0
5.8150454,5.832465,47.414425,8.0
6.1458697,6.070135,49.34105,7.0
6.7460675,6.5627065,53.338882,7.0
7.176314,6.8777947,55.893375,7.0
7.827445,7.3922844,60.067463,7.0
7.905028,7.3580966,59.7826,7.0
5.6450434,5.1799164,42.080418,7.0
6.055,5.478358,44.49948,7.0
6.1389,5.477628,44.488075,7.0
6.46186,5.6873245,46.185417,7.0
8.468313,7.3531976,59.706017,7.0
7.075311,6.0622234,49.217342,6.0
7.0764055,5.983874,48.574932,6.0
6.3390694,5.2911825,42.946262,6.0
7.810066,6.435938,52.23078,5.0
9.322848,7.585882,61.554836,4.0
11.869024,9.537655,77.38171,3.0
13.436419,10.66464,86.51328,3.0
9.395356,7.3667765,59.7521,3.0
8.651263,6.702073,54.35297,3.0
11.375286,8.708023,70.61084,2.0
8.271255,6.257734,50.734783,2.0
9.5418825,7.1355553,57.843246,2.0
9.426425,6.9686174,56.481598,2.0
12.012194,8.7798,71.15079,2.0
12.505241,9.038004,73.23211,2.0
16.290508,11.643604,94.32998,2.0
17.702124,12.5142145,101.36741,3.0
19.29024,13.489415,109.24956,3.0
23.709042,16.402027,132.81744,3.0
30.071178,20.583143,166.64778,3.0
28.746428,19.470251,157.61186,4.0
34.38496,23.047836,186.54189,4.0
33.604263,22.293417,180.40596,4.0
34.094112,22.388655,181.14635,4.0
36.512535,23.735678,192.01263,5.0
46.15959,29.708214,240.28716,5.0
46.13461,29.399462,237.74887,5.0
45.82067,28.914392,233.78548,6.0
41.98238,26.236212,212.09392,6.0
46.36792,28.69946,231.96564,7.0
48.59976,29.795588,240.782,7.0
51.46323,31.254723,252.52776,7.0
48.248245,29.029472,234.50563,8.0
51.90139,30.939497,249.88908,8.0
50.84121,30.030579,242.50288,9.0
50.505585,29.562214,238.67592,9.0
56.396713,32.714226,264.0742,9.0
57.3407,32.965984,266.0555,9.0
56.188248,32.01866,258.3602,8.0
55.64954,31.434568,253.59776,8.0
56.919086,31.873167,257.08566,9.0
58.01365,32.20708,259.72754,9.0
59.068268,32.513325,262.14474,8.0
60.98759,33.286335,268.32324,8.0
62.300888,33.71841,271.751,7.0
61.918503,33.233185,267.7855,8.0
63.75948,33.93946,273.41995,8.0
64.800285,34.211735,275.55603,8.0
64.41356,33.73203,271.63516,8.0
64.392494,33.449978,269.3069,8.0
64.1819,33.074753,266.22906,9.0
67.45665,34.487347,277.53976,8.0
64.450745,32.691967,263.03424,8.0
66.15007,33.29265,267.8086,7.0
64.32305,32.12298,258.34277,8.0
67.35824,33.38081,268.39905,8.0
64.48378,31.713135,254.933,8.0
67.71853,33.052467,265.63962,8.0
67.97588,32.929386,264.59027,8.0
69.037636,33.194897,266.66263,8.0
70.198906,33.50399,269.0836,8.0
71.79651,34.015263,273.12634,7.0
72.82786,34.252777,274.9691,7.0
73.3158,34.233112,274.74646,7.0
73.8266,34.22433,274.61072,7.0
72.85288,33.532383,268.99426,7.0
72.778885,33.26141,266.75626,7.0
70.45802,31.974588,256.37372,8.0
77.16238,34.772884,278.74246,8.0
78.47277,35.118492,281.4436,8.0
80.02662,35.567535,284.97165,8.0
80.59246,35.574333,284.955,7.0
80.43674,35.26468,282.40366,8.0
78.88162,34.349827,275.0078,7.0
79.73173,34.487583,276.04037,7.0
80.12914,34.428997,275.5008,7.0
74.86956,31.956602,255.65067,8.0
84.47674,35.820595,286.48788,8.0
81.93058,34.51443,275.96918,8.0
82.74058,34.629856,276.81918,8.0
83.357506,34.663506,277.01474,8.0
8.620997,10.788162,86.46128,7.0
7.600303,9.333048,74.79252,6.0
7.255455,8.746042,70.08192,6.0
7.716336,9.133954,73.183334,6.0
8.261633,9.606281,76.96034,7.0
7.386348,8.439118,67.60305,7.0
5.542739,6.2244506,49.8571,7.0
5.402248,5.964683,47.77156,7.0
5.1812778,5.626117,45.05533,7.0
5.4086905,5.777523,46.26299,8.0
6.4549,6.7847157,54.32222,8.0
6.633638,6.862744,54.941025,9.0
6.250974,6.3665667,50.963196,8.0
6.571641,6.5909405,52.7534,8.0
6.8364077,6.7533426,54.047142,7.0
7.0424647,6.853794,54.844765,7.0
7.5976915,7.2861633,58.297844,8.0
7.6838574,7.2627316,58.103497,8.0
5.6745477,5.2874384,42.29564,7.0
5.087056,4.6737065,37.38169,7.0
5.9829993,5.421003,43.353447,6.0
5.787922,5.1728725,41.363907,7.0
6.044423,5.3295784,42.611576,7.0
6.0084443,5.2276583,41.791336,6.0
5.766478,4.9515266,39.57872,6.0
7.558231,6.406284,51.200195,4.0
7.392818,6.1862288,49.434883,4.0
9.913257,8.19092,65.44577,4.0
11.082845,9.043503,72.248055,3.0
12.598609,10.154163,81.10983,3.0
10.014864,7.973852,63.68493,3.0
7.436907,5.8503366,46.718372,3.0
6.7521334,5.248766,41.90846,3.0
7.481222,5.747477,45.88372,2.0
11.772571,8.939719,71.3578,2.0
11.518137,8.646509,69.00711,2.0
11.988071,8.897554,71.0,2.0
14.796596,10.859286,86.6409,3.0
18.923456,13.734483,109.563835,3.0
21.363403,15.335845,122.319336,3.0
24.688217,17.530905,139.80524,3.0
30.943314,21.737495,173.32437,3.0
32.284927,22.439863,178.896,3.0
29.891705,20.558786,163.87299,4.0
35.11338,23.899754,190.47243,4.0
39.312496,26.483295,211.02737,5.0
38.65046,25.77285,205.33194,5.0
44.82934,29.592472,235.72293,5.0
43.524246,28.444944,226.54346,6.0
43.949318,28.439629,226.46204,6.0
41.256336,26.436417,210.474,6.0
41.492393,26.330667,209.59518,7.0
49.82461,31.315496,249.23073,7.0
50.678173,31.549908,251.0513,7.0
49.607304,30.593103,243.3937,8.0
52.534107,32.09655,255.30821,8.0
51.313396,31.061646,247.0306,9.0
51.74819,31.03862,246.80153,9.0
54.1469,32.1833,255.85533,9.0
58.191822,34.27712,272.44937,9.0
59.15148,34.532516,274.42688,9.0
57.831615,33.464355,265.887,9.0
58.543247,33.580124,266.75485,8.0
54.929432,31.234316,248.07141,9.0
58.887657,33.19748,263.61115,9.0
62.49483,34.93099,277.321,8.0
61.59418,34.136883,270.96188,8.0
61.096035,33.57728,266.46585,8.0
59.016014,32.164818,255.20438,8.0
62.14307,33.590195,266.45862,8.0
61.92345,33.19809,263.2933,8.0
62.174084,33.062393,262.16202,8.0
61.839783,32.620323,258.60193,8.0
62.748096,32.835556,260.2526,9.0
66.95519,34.759945,275.44592,8.0
65.9668,33.978046,269.19153,8.0
64.933395,33.18532,262.85367,8.0
67.90302,34.434853,272.6908,7.0
64.608826,32.51307,257.41498,8.0
65.95708,32.938976,260.7286,7.0
66.47644,32.947624,260.73828,8.0
68.736115,33.812218,267.5196,8.0
70.00816,34.18174,270.3813,8.0
70.69487,34.26211,270.9545,8.0
74.38556,35.786503,282.94406,8.0
75.00497,35.82188,283.15744,8.0
74.80569,35.468567,280.29852,7.0
75.19717,35.39841,279.67767,7.0
76.18006,35.605667,281.24786,7.0
74.76631,34.697758,274.01025,7.0
76.6473,35.32089,278.86343,8.0
77.62563,35.52226,280.38474,8.0
81.80534,37.175667,293.36322,8.0
80.61867,36.384403,287.04794,8.0
76.57838,34.324863,270.732,7.0
76.62034,34.11065,268.97482,7.0
79.04747,34.954018,275.5553,7.0
79.3063,34.83371,274.53693,7.0
80.119545,34.95689,275.43713,7.0
85.046234,36.86132,290.36774,7.0
81.538025,35.10883,276.49094,7.0
83.57521,35.751373,281.47748,8.0
84.20034,35.785454,281.6716,8.0
85.23197,35.990753,283.2124,8.0
8.881156,11.282808,89.06034,6.0
7.5259523,9.382351,74.05243,6.0
6.4505844,7.8941193,62.300434,6.0
7.7439537,9.306108,73.43692,6.0
7.882719,9.305146,73.42227,6.0
7.592516,8.80665,69.48209,7.0
7.3426056,8.37114,66.03946,7.0
6.447222,7.2267537,57.005703,7.0
6.2644844,6.905816,54.46849,8.0
7.310855,7.928219,62.52598,9.0
7.8359876,8.361685,65.93751,9.0
7.710186,8.097832,63.849957,9.0
7.8915133,8.159729,64.330956,9.0
8.5572405,8.712951,68.684875,8.0
6.3342967,6.3525367,50.071888,8.0
6.110817,6.03759,47.58396,8.0
5.8603606,5.705577,44.962036,8.0
5.9451857,5.704849,44.950985,8.0
5.5893497,5.287294,41.655895,8.0
5.8515425,5.457872,42.994568,7.0
5.932623,5.4571447,42.983547,7.0
4.7618713,4.320608,34.02729,6.0
5.820552,5.210271,41.028706,6.0
5.645955,4.9870152,39.265625,6.0
6.3482404,5.53401,43.566765,5.0
8.226856,7.0791016,55.72323,4.0
7.767889,6.5989847,51.937054,3.0
10.061608,8.439991,66.41765,3.0
9.945809,8.239176,64.82849,2.0
10.067899,8.237942,64.8098,2.0
9.061637,7.324671,57.616806,2.0
6.4726,5.1692266,40.656036,3.0
5.754858,4.5416026,35.714634,3.0
6.5817933,5.1334257,40.362797,2.0
11.549452,8.903737,69.99749,2.0
14.110047,10.753391,84.52613,2.0
16.28697,12.272132,96.44956,2.0
15.986929,11.911403,93.600266,3.0
20.605425,15.182801,119.28869,3.0
24.07873,17.548067,137.85075,3.0
27.550797,19.861279,155.99791,3.0
33.09365,23.601837,185.3482,3.0
30.78141,21.72038,170.54549,4.0
29.537767,20.624481,161.91434,4.0
37.676834,26.034775,204.35481,5.0
40.097504,27.423151,215.21693,5.0
41.66887,28.208376,221.34232,5.0
44.823864,30.039093,235.6675,5.0
39.844524,26.436329,207.3671,7.0
40.38933,26.53366,208.09465,7.0
41.60932,27.068317,212.25081,7.0
43.559044,28.062765,220.00984,7.0
48.332325,30.839819,241.73878,7.0
49.010162,30.975763,242.76082,8.0
50.027348,31.321619,245.42688,8.0
52.17085,32.359646,253.51419,8.0
53.19987,32.693626,256.08344,9.0
52.813217,32.15946,251.8525,9.0
50.512127,30.479763,238.65332,9.0
51.34782,30.705997,240.37914,8.0
57.001556,33.78378,264.42267,9.0
56.850033,33.39695,261.3445,9.0
58.536095,34.086952,266.6921,8.0
59.084133,34.108032,266.80463,8.0
58.187637,33.302017,260.44806,8.0
58.644753,33.277824,260.20685,8.0
59.855797,33.67824,263.2847,8.0
60.33777,33.665173,263.12903,8.0
60.778355,33.62941,262.79562,8.0
61.382755,33.68413,263.16882,8.0
62.820152,34.191334,267.0758,8.0
63.31889,34.183563,266.959,8.0
61.11424,32.728184,255.53897,8.0
61.857224,32.861958,256.52866,8.0
65.12402,34.3238,267.88242,8.0
66.03439,34.530464,269.43692,8.0
68.39877,35.48832,276.85037,7.0
67.159744,34.57621,269.67538,7.0
65.551445,33.489426,261.14102,8.0
65.78203,33.35149,260.0072,7.0
68.79014,34.61321,269.78268,8.0
69.914055,34.91504,272.07333,8.0
71.43353,35.40846,275.85507,8.0
72.462875,35.65342,277.6994,8.0
74.376495,36.32669,282.8776,8.0
74.995834,36.3626,283.09094,8.0
76.37704,36.76472,286.15402,8.0
76.7677,36.687687,285.48657,8.0
76.83552,36.45855,283.63565,8.0
77.42243,36.477222,283.71252,8.0
80.12753,37.486607,291.4925,7.0
78.75492,36.5875,284.43155,8.0
79.42944,36.645306,284.81076,8.0
81.1122,37.16426,288.77252,7.0
81.932365,37.283604,289.6275,7.0
80.65364,36.45269,283.10162,7.0
79.47604,35.67838,277.01794,7.0
81.161575,36.19114,280.92758,7.0
83.457756,36.967564,286.88083,7.0
81.25822,35.755505,277.40317,7.0
85.753494,37.485893,290.7525,8.0
85.95594,37.3294,289.46292,8.0
86.03672,37.12244,287.78223,8.0
86.42543,37.05014,287.1456,7.0
7.7407813,9.981422,77.615685,6.0
7.4011335,9.365017,72.815865,6.0
6.304899,7.8314624,60.88637,6.0
7.328957,8.939384,69.49345,7.0
7.024296,8.416083,65.41909,7.0
7.236644,8.519663,66.217735,7.0
6.674725,7.7237453,60.025623,8.0
5.4519196,6.202693,48.19978,9.0
5.522226,6.178799,48.009163,9.0
6.1030436,6.7176003,52.19018,11.0
6.399757,6.931445,53.84585,11.0
7.709231,8.218173,63.8347,9.0
5.995259,6.2919283,48.867226,9.0
8.208322,8.482936,65.876686,9.0
6.27086,6.3831677,49.56473,8.0
5.09268,5.1070614,39.651325,8.0
4.76865,4.71228,36.581974,8.0
4.8376737,4.7116785,36.572987,8.0
5.5886564,5.365868,41.645943,8.0
5.1653657,4.8900633,37.94848,7.0
5.553387,5.1848626,40.231255,7.0
5.371378,4.9466763,38.378284,7.0
6.042934,5.4904065,42.59137,6.0
6.5882835,5.90658,45.81392,5.0
7.7609053,6.866882,53.255497,4.0
8.696453,7.5953355,58.89719,4.0
7.464839,6.4365807,49.905094,3.0
10.393439,8.849005,68.60021,3.0
10.281796,8.645165,67.01082,2.0
10.909602,9.060442,70.22,2.0
10.773903,8.839244,68.49606,2.0
7.6848125,6.229322,48.264706,3.0
7.8334327,6.274618,48.608677,3.0
11.394365,9.020152,69.86783,2.0
16.631216,13.013547,100.78485,3.0
17.254267,13.34671,103.349686,3.0
17.509153,13.390773,103.675285,3.0
22.609678,17.098305,132.35995,3.0
27.586369,20.631256,159.68436,3.0
24.895702,18.415392,142.51158,4.0
30.594166,22.385798,173.21017,4.0
28.702068,20.776636,160.73373,4.0
28.367296,20.316917,157.15198,4.0
40.02498,28.365953,219.3759,5.0
36.174496,25.371304,196.18376,6.0
38.405037,26.659327,206.10922,6.0
38.792076,26.654491,206.03735,6.0
42.71519,29.054998,224.55508,6.0
41.620888,28.028824,216.58716,7.0
41.35285,27.573826,213.03448,7.0
42.721752,28.20855,217.90033,7.0
44.320522,28.981316,223.83026,8.0
49.153862,31.834124,245.81955,8.0
49.61483,31.827944,245.72775,8.0
51.68005,32.841335,253.50572,8.0
52.557766,33.08826,255.36504,8.0
53.147114,33.150753,255.80013,9.0
53.64502,33.155586,255.78976,9.0
54.133568,33.154602,255.73409,9.0
51.341457,31.162386,240.3218,8.0
56.401497,33.929184,261.60904,8.0
58.02962,34.60088,266.73657,8.0
56.77736,33.558372,258.64957,8.0
57.51648,33.70074,259.6958,8.0
58.002293,33.693516,259.58865,8.0
57.829174,33.306896,256.5587,8.0
59.48615,33.97195,261.62875,8.0
58.240494,32.982082,253.9538,8.0
60.770824,34.12926,262.7329,8.0
61.241127,34.110146,262.53146,8.0
63.072193,34.843075,268.11655,8.0
63.52055,34.80646,267.7785,8.0
63.10203,34.29924,263.82034,8.0
63.5413,34.262627,263.48248,8.0
64.944405,34.74221,267.1129,8.0
65.65887,34.848755,267.87393,7.0
63.044926,33.200832,255.15091,8.0
64.09112,33.490982,257.32397,8.0
65.919075,34.182053,262.5754,8.0
66.408455,34.173786,262.45312,8.0
67.48069,34.463303,264.61685,8.0
70.571915,35.77188,274.60196,8.0
70.275444,35.356575,271.35168,8.0
69.82943,34.872726,267.5765,8.0
72.65904,36.01982,276.31384,8.0
71.476105,35.17552,269.77386,8.0
76.81241,37.52854,287.75214,8.0
74.43613,36.106674,276.78406,8.0
76.58864,36.886185,282.6919,8.0
78.75127,37.659504,288.5489,7.0
78.67387,37.358273,286.17136,7.0
77.50969,36.548794,279.90213,7.0
77.93197,36.493412,279.40915,7.0
81.053085,37.693886,288.52896,7.0
81.588615,37.683743,288.37927,7.0
81.09142,37.199978,284.60562,7.0
80.4051,36.636555,280.2241,7.0
80.92476,36.6265,280.07574,7.0
85.88203,38.61167,295.1802,7.0
86.263214,38.526844,294.45563,8.0
86.474884,38.36792,293.16473,8.0
86.28133,38.03244,290.5253,8.0
85.81807,37.58319,287.01785,8.0
85.85219,37.35614,285.20825,8.0
7.68578,10.056825,77.05516,5.0
6.932244,8.9012165,68.19471,6.0
6.374205,8.03445,61.54845,7.0
7.0234942,8.693288,66.58923,7.0
6.970132,8.474492,64.90705,7.0
6.821701,8.149732,62.41357,8.0
5.956857,6.99483,53.56359,9.0
5.5532217,6.4112296,49.089645,10.0
5.355627,6.0808706,46.555344,10.0
6.297254,7.0337095,53.844677,11.0
6.3989525,7.0329046,53.832794,11.0
5.913112,6.3965507,48.956585,9.0
5.0552735,5.3837643,41.20061,9.0
6.1316247,6.4303265,49.20421,9.0
5.4500065,5.6295257,43.071693,9.0
5.0920386,5.1818166,39.641705,8.0
4.7387266,4.751853,36.34818,8.0
4.854914,4.798289,36.699043,8.0
5.4069176,5.268028,40.286945,8.0
5.764409,5.537758,42.34454,7.0
5.236278,4.960983,37.92955,7.0
5.3707013,5.0190845,38.368973,7.0
6.4245896,5.9233556,45.276043,6.0
8.053486,7.3267856,55.99618,4.0
8.577797,7.7017384,58.854156,4.0
9.769021,8.658082,66.1535,3.0
9.303027,8.140008,62.18678,3.0
10.392132,8.9785385,68.58358,3.0
10.246096,8.742358,66.770355,2.0
10.998781,9.269387,70.78576,2.0
11.132101,9.267982,70.7651,2.0
9.453199,7.7759285,59.36419,2.0
14.213906,11.553528,88.191055,2.0
17.42534,13.998163,106.83605,2.0
17.035429,13.526669,103.22234,3.0
17.334282,13.606602,103.81687,3.0
24.012552,18.635666,142.16667,3.0
27.557566,21.147823,161.30673,3.0
24.62455,18.688116,142.5232,4.0
28.554619,21.433798,163.43742,4.0
31.229584,23.188158,176.78702,5.0
36.794323,27.027697,206.02696,5.0
36.95586,26.85897,204.7079,5.0
33.84674,24.341608,185.4915,6.0
34.647774,24.659365,187.88206,6.0
40.494755,28.525028,217.29887,6.0
40.90286,28.519854,217.2231,6.0
44.668514,30.832327,234.79643,6.0
47.40416,32.394875,246.65346,7.0
45.869778,31.03734,236.27644,7.0
47.613956,31.903057,242.82452,8.0
49.40041,32.780087,249.45596,8.0
49.10319,32.270924,245.53758,8.0
50.362957,32.784958,249.40392,8.0
53.178165,34.29238,260.82404,8.0
51.846817,33.122684,251.88136,8.0
53.371193,33.78213,256.8487,8.0
54.03876,33.89216,257.6372,9.0
53.835453,33.458927,254.29611,9.0
54.245396,33.411186,253.88512,9.0
51.99531,31.74048,241.14359,8.0
57.260273,34.646343,263.1696,8.0
57.149654,34.277245,260.31525,8.0
58.85351,34.993404,265.7018,8.0
58.460068,34.46094,261.60696,8.0
59.428345,34.733418,263.6227,8.0
59.26739,34.346867,260.63626,8.0
58.679485,33.721428,255.83818,8.0
57.889668,32.991306,250.24753,8.0
58.285156,32.94315,249.83058,8.0
59.81181,33.529896,254.22723,8.0
63.6592,35.397575,268.33173,8.0
63.738026,35.15657,266.44827,8.0
63.85248,34.938892,264.74197,8.0
64.93625,35.250862,267.04825,8.0
65.65062,35.35897,267.80908,7.0
65.47532,34.98995,264.95615,8.0
64.99337,34.46402,260.9161,8.0
65.91079,34.682514,262.51184,8.0
65.676575,34.29629,259.53036,8.0
66.94518,34.694744,262.48633,8.0
69.7046,35.85406,271.19553,8.0
73.065445,37.30317,282.09177,8.0
74.897064,37.955906,286.96158,8.0
74.681114,37.569016,283.9705,8.0
73.501076,36.706287,277.38446,8.0
74.06398,36.720158,277.42377,8.0
74.37966,36.612133,276.54184,8.0
74.8939,36.60268,276.40427,8.0
78.74139,38.2109,288.4791,7.0
78.27903,37.719765,284.70203,7.0
78.80798,37.709827,284.55734,7.0
77.97097,37.050922,279.51645,7.0
81.325226,38.379025,289.46393,7.0
81.6896,38.287636,288.7025,7.0
81.20562,37.80256,284.97318,7.0
81.734314,37.79225,284.82336,7.0
83.63571,38.412544,289.42444,8.0
86.31501,39.379486,296.6338,7.0
85.93342,38.946404,293.29572,7.0
86.79789,39.080036,294.2255,8.0
88.11816,39.415794,296.67566,7.0
88.22553,39.208183,295.03522,7.0
88.235374,38.96018,293.09122,8.0
7.711814,10.237709,77.30698,6.0
7.70661,10.039504,75.80339,6.0
6.9013944,8.82552,66.631,7.0
6.9036536,8.669283,65.44526,7.0
6.6835,8.244227,62.230495,8.0
6.485704,7.8610616,59.332397,10.0
6.427371,7.657144,57.787556,11.0
5.9145236,6.9277086,52.277294,11.0
4.7691655,5.4937806,41.45244,11.0
5.4586806,6.185778,46.668915,9.0
4.791909,5.343281,40.30836,10.0
4.6613526,5.11582,38.588287,9.0
4.419348,4.774997,36.01353,9.0
4.425649,4.7087755,35.510124,9.0
4.6919885,4.917057,37.076637,9.0
5.033598,5.1968775,39.1821,9.0
5.1720586,5.2618494,39.667328,9.0
6.2641816,6.2812033,47.346302,8.0
6.2992206,6.2267127,46.929935,8.0
5.4699826,5.33137,40.176968,7.0
5.84974,5.622834,42.368202,7.0
7.162117,6.790609,51.16102,6.0
9.820465,9.186038,69.19962,4.0
8.091203,7.4682093,56.251766,4.0
9.786991,8.915301,67.14276,3.0
11.755789,10.570518,79.59801,3.0
9.597135,8.519537,64.14517,3.0
7.026874,6.159381,46.36885,3.0
9.013211,7.8023186,58.729107,3.0
10.043202,8.587218,64.62821,2.0
14.429702,12.188193,91.716606,3.0
14.602436,12.186323,91.68951,3.0
16.160929,13.32728,100.25962,3.0
16.75131,13.652511,102.691376,3.0
15.836643,12.757772,95.94721,3.0
19.319279,15.385398,115.69154,4.0
27.514961,21.664541,162.88347,4.0
26.70611,20.792633,156.30428,4.0
28.058205,21.603853,162.37747,4.0
29.683016,22.605015,169.87592,5.0
32.8433,24.74121,185.90009,5.0
37.020905,27.589851,207.27118,5.0
36.540127,26.943268,202.38112,6.0
36.92048,26.938532,202.31271,6.0
40.879314,29.517822,221.6472,6.0
41.179367,29.429382,220.94644,6.0
42.02249,29.726906,223.14275,6.0
46.24822,32.38725,243.07129,7.0
44.726826,31.010029,232.69525,8.0
45.327904,31.117006,233.45766,8.0
47.153973,32.054623,240.45026,8.0
50.795296,34.196163,256.46936,8.0
52.415123,34.948826,262.0677,8.0
52.664238,34.78193,260.76935,8.0
50.978184,33.352093,250.00417,8.0
50.477425,32.717117,245.19963,8.0
51.91536,33.338844,249.81302,8.0
54.292625,34.5469,258.81693,9.0
53.631264,33.81708,253.3017,9.0
54.23848,33.893074,253.82272,9.0
53.920204,33.39453,250.04128,8.0
57.629128,35.37696,264.83353,8.0
59.10743,35.967392,269.20105,8.0
58.669415,35.39159,264.83932,8.0
59.066032,35.324837,264.28738,8.0
60.3885,35.808216,267.85025,8.0
59.823166,35.173477,263.04926,9.0
58.3576,34.0245,254.40471,8.0
59.610275,34.466267,257.65497,8.0
59.493988,34.115753,254.9819,8.0
62.01724,35.272194,263.57013,8.0
62.99132,35.53594,265.48517,8.0
62.53721,34.99622,261.39752,8.0
62.940178,34.940907,260.9286,8.0
62.93415,34.66121,258.7841,8.0
66.830444,36.518246,272.58972,8.0
68.275055,37.017117,276.25302,8.0
68.73549,36.9788,275.90622,8.0
69.85765,37.29434,278.19864,8.0
68.0946,36.076485,269.0537,8.0
68.596054,36.067703,268.9275,8.0
70.41856,36.74844,273.9409,8.0
71.48627,37.028088,275.96225,8.0
71.370026,36.69487,273.41568,8.0
72.51374,37.009594,275.69653,8.0
72.410965,36.68818,273.23816,8.0
73.59816,37.020267,275.64633,8.0
74.61765,37.263836,277.3939,8.0
73.674065,36.530556,271.8702,8.0
75.01583,36.932804,274.79752,7.0
75.52659,36.923134,274.65884,7.0
76.945175,37.35432,277.7983,7.0
81.15508,39.125244,290.89667,8.0
82.56663,39.531967,293.84775,8.0
81.01214,38.522736,286.2744,7.0
81.00879,38.25979,284.2488,8.0
84.65247,39.711235,294.95755,8.0
84.45643,39.35405,292.22995,8.0
80.16845,37.107574,275.47766,7.0
80.806694,37.155926,275.7653,7.0
87.03081,39.75522,294.9801,7.0
87.667725,39.78507,295.12424,7.0
87.87634,39.621403,293.8327,7.0
90.055374,40.342545,299.10132,8.0
6.3739157,8.582948,63.887527,6.0
6.205772,8.200279,61.033554,6.0
6.900503,8.95093,66.61436,7.0
6.3699503,8.113798,60.37858,8.0
6.0482697,7.5676537,56.30904,10.0
6.706613,8.245393,61.34592,11.0
6.2460766,7.547876,56.15079,12.0
6.377683,7.5773406,56.364277,11.0
4.9499617,5.7838206,43.018696,10.0
5.4579744,6.27368,46.657265,9.0
4.678868,5.2920547,39.352745,10.0
4.5193505,5.0311055,37.408237,10.0
4.5900035,5.0305114,37.39971,10.0
5.3616896,5.7865124,43.015465,9.0
6.222912,6.614946,49.168262,9.0
6.200174,6.4931,48.25705,9.0
6.795511,7.012636,52.112198,9.0
5.983808,6.086119,45.22173,8.0
5.8941975,5.909911,43.907185,8.0
5.554923,5.4918075,40.79595,7.0
5.9668303,5.817639,43.211063,6.0
6.538751,6.2884912,46.702526,5.0
6.958182,6.6020126,49.024734,4.0
8.006218,7.495753,55.65425,3.0
9.72031,8.981551,66.67729,3.0
9.58761,8.744586,64.90955,3.0
7.206985,6.489519,48.16414,3.0
2.989772,2.65826,19.726501,3.0
7.2027545,6.3245153,46.92674,3.0
11.4764595,9.953431,73.84238,3.0
14.949407,12.80827,95.00849,3.0
15.363736,13.005553,96.45818,3.0
20.618935,17.247494,127.900955,3.0
20.859762,17.244781,127.86226,3.0
25.23638,20.62165,152.87772,3.0
27.570852,22.271662,165.08543,4.0
27.602043,22.044819,163.37938,4.0
28.619802,22.602173,167.48456,4.0
30.425274,23.762411,176.05495,4.0
32.473793,25.085026,185.82523,5.0
35.237667,26.925644,199.4288,5.0
39.153183,29.59744,219.18301,6.0
38.25177,28.609911,211.8358,6.0
38.649933,28.604885,211.76419,6.0
43.103218,31.570047,233.67714,6.0
44.431396,32.208927,238.36649,7.0
47.80006,34.298973,253.79163,7.0
46.276134,32.871613,243.18883,8.0
46.32189,32.576565,240.96478,8.0
48.7106,33.918808,250.84985,8.0
49.452023,34.098976,252.13835,8.0
50.691788,34.615967,255.91605,8.0
53.386776,36.107265,266.8938,8.0
51.642876,34.59659,255.68137,9.0
53.835056,35.726364,263.983,8.0
52.656525,34.61905,255.75418,8.0
54.455627,35.471733,262.00516,9.0
54.31353,35.05592,258.88556,9.0
53.46463,34.19556,252.48436,9.0
54.26937,34.398808,253.93684,9.0
56.035717,35.202534,259.82025,9.0
56.531914,35.20119,259.76016,8.0
58.42864,36.064323,266.0776,8.0
58.71087,35.92461,264.9947,8.0
60.383995,36.631058,270.15213,8.0
59.692394,35.903164,264.73096,8.0
59.82548,35.67939,263.02786,8.0
59.120758,34.96388,257.70068,8.0
60.3182,35.375847,260.68356,8.0
61.238316,35.619717,262.42633,8.0
60.73143,35.03635,258.07455,8.0
62.040794,35.501755,261.44766,8.0
61.26272,34.77477,256.03958,8.0
63.99562,36.036438,265.27225,8.0
66.01284,36.87832,271.41104,8.0
67.78305,37.57008,276.44208,8.0
68.26622,37.543247,276.18414,8.0
70.78798,38.629295,284.11087,8.0
70.798645,38.338875,281.9122,8.0
69.16529,37.169376,273.25143,8.0
70.21275,37.447334,275.23264,8.0
70.04809,37.079483,272.467,8.0
71.84103,37.74564,277.29843,8.0
71.097305,37.07903,272.33823,8.0
72.76975,37.67303,276.6367,8.0
71.11184,36.54681,268.30383,8.0
72.72277,37.104683,272.33505,8.0
74.08959,37.530888,275.39777,8.0
71.861206,36.14281,265.14862,8.0
74.12218,37.016323,271.4913,7.0
74.63889,37.012608,271.39807,7.0
80.45873,39.62036,290.44855,8.0
79.86474,39.0555,286.23712,8.0
82.55598,40.0939,293.7746,8.0
81.00169,39.07032,286.20312,7.0
82.97513,39.75065,291.11346,8.0
84.391304,40.15663,294.0122,8.0
83.60172,39.514626,289.23782,8.0
82.655136,38.807438,283.98843,7.0
83.78119,39.07628,285.8819,7.0
87.070946,40.344135,295.0807,7.0
88.63815,40.80253,298.35526,7.0
88.410934,40.434296,295.58472,7.0
88.91904,40.404945,295.29172,7.0
7.8043256,10.657677,78.21535,6.0
7.6633306,10.269457,75.359375,6.0
6.880914,9.05171,66.41713,8.0
5.4368176,7.0231194,51.527435,10.0
5.9506407,7.5507646,55.39334,11.0
6.0307264,7.5192556,55.156788,11.0
5.8392653,7.1560426,52.487244,12.0
5.010744,6.0374465,44.27822,11.0
4.6850038,5.5516253,40.711044,11.0
5.715372,6.662429,48.851646,10.0
4.7638974,5.464409,40.06302,10.0
4.970089,5.611112,41.134136,10.0
4.528651,5.033445,36.895306,10.0
5.417063,5.928933,43.454414,10.0
6.44411,6.9469295,50.909767,9.0
6.7366776,7.154699,52.426357,9.0
6.7946196,7.1108537,52.099003,9.0
6.7799673,6.9933906,51.232338,8.0
6.8103123,6.9250154,50.725338,7.0
6.220942,6.2372165,45.681694,6.0
6.1210895,6.0524235,44.32279,5.0
7.1036725,6.9283853,50.731247,4.0
7.6007524,7.3136587,53.545517,4.0
8.386058,7.9623866,58.287556,3.0
8.378252,7.85095,57.46432,3.0
8.380604,7.7517867,56.73103,3.0
7.259714,6.629427,48.51062,3.0
7.4530673,6.7203517,49.169308,3.0
9.10028,8.103656,59.2821,3.0
11.474952,10.09284,73.823685,3.0
15.567608,13.526521,98.92532,3.0
21.466469,18.42851,134.75658,3.0
21.128565,17.92369,131.04628,3.0
23.324532,19.555054,142.95293,4.0
28.053967,23.24815,169.92549,4.0
28.366388,23.238295,169.82817,4.0
30.649805,24.825087,181.3973,4.0
31.105728,24.912752,182.01015,4.0
34.057934,26.975664,197.05122,5.0
34.85791,27.30742,199.4436,5.0
37.64713,29.173508,213.03928,6.0
39.18791,30.042568,219.3507,6.0
38.504574,29.206207,213.20985,6.0
40.87547,30.67977,223.93068,6.0
46.848034,34.798042,253.94814,7.0
46.569153,34.235966,249.80476,7.0
45.85517,33.36868,243.43575,8.0
45.07496,32.47112,236.84763,8.0
48.053394,34.27213,249.94159,8.0
49.326508,34.83337,253.99077,8.0
48.991737,34.259277,249.76114,8.0
49.85697,34.527317,251.67087,9.0
51.236393,35.1429,256.1123,9.0
51.12441,34.733555,253.08366,9.0
52.233356,35.153595,256.09784,8.0
48.790966,32.53123,236.95021,9.0
52.29859,34.54839,251.59627,9.0
54.07365,35.39461,257.7108,9.0
53.45761,34.67456,252.4205,9.0
55.475243,35.660385,259.54776,9.0
58.351334,37.175602,270.52414,8.0
57.913033,36.571114,266.0739,8.0
58.459877,36.59386,266.18747,8.0
58.899338,36.54957,265.813,8.0
60.504654,37.223286,270.65903,8.0
59.84415,36.503433,265.37167,8.0
60.964108,36.872597,268.00134,8.0
59.113003,35.453655,257.63556,8.0
60.4534,35.956516,261.2361,8.0
61.405476,36.222023,263.11063,8.0
61.72063,36.110554,262.2462,8.0
63.131973,36.63703,266.01367,8.0
63.49172,36.549683,265.32312,8.0
65.82699,37.591885,272.83038,8.0
66.80794,37.850304,274.64667,8.0
67.77416,38.09638,276.37216,8.0
69.954735,39.015903,282.98093,8.0
69.561775,38.49697,279.1555,8.0
69.93887,38.40889,278.4548,8.0
68.321686,37.235252,269.88574,8.0
71.40294,38.620655,279.8641,8.0
71.924545,38.61119,279.73178,8.0
72.764206,38.77133,280.8276,7.0
71.0651,37.586357,272.18173,8.0
68.664795,36.050602,260.99976,8.0
70.91666,36.961918,267.5348,8.0
70.92322,36.698257,265.56366,8.0
71.617645,36.79175,266.17688,8.0
73.78541,37.635414,272.21524,8.0
75.904076,38.442276,277.9841,7.0
75.53103,37.984703,274.60858,7.0
78.2085,39.056934,282.29108,7.0
80.26869,39.808167,287.6498,8.0
79.944176,39.37455,284.4459,7.0
81.68271,39.955997,288.57422,8.0
82.36761,40.017666,288.94684,8.0
83.65458,40.369034,291.41,8.0
82.86041,39.71813,286.6382,8.0
82.60632,39.33303,283.7861,8.0
83.13253,39.322105,283.63394,8.0
83.31175,39.14827,282.30652,8.0
87.85164,41.012417,295.6718,7.0
88.12647,40.874226,294.5978,7.0
88.90743,40.971043,295.21722,7.0
5.9447203,8.231351,59.57089,6.0
6.548045,8.897217,64.383934,7.0
6.417598,8.559917,61.937344,8.0
5.307684,6.9518914,50.297333,10.0
5.94985,7.6550126,55.379116,11.0
6.0447044,7.641753,55.27778,11.0
5.8585367,7.2797523,52.65394,12.0
6.3250327,7.727279,55.88521,11.0
5.21811,6.269548,45.33794,11.0
5.472334,6.4680514,46.76851,11.0
5.8069005,6.7536416,48.828327,10.0
5.7632318,6.5972614,47.69255,10.0
5.831244,6.5715904,47.50176,10.0
5.449985,6.048125,43.713085,10.0
5.7659144,6.302474,45.546253,9.0
6.158098,6.6313987,47.917793,9.0
6.1372037,6.512385,47.05233,8.0
6.452005,6.747887,48.748077,7.0
6.3088026,6.5044966,46.98413,7.0
6.3118563,6.416597,46.343563,6.0
6.2070875,6.223024,44.939945,5.0
7.2472954,7.167012,51.750538,4.0
8.077512,7.8807716,56.897133,4.0
9.856664,9.489173,68.50058,3.0
8.75643,8.319725,60.050728,3.0
10.088508,9.461641,68.283936,3.0
8.808442,8.155842,58.85221,3.0
10.984506,10.042706,72.45794,3.0
11.464964,10.35171,74.67717,3.0
15.692413,13.99476,100.9441,3.0
23.140436,20.386791,147.02914,3.0
21.2069,18.459507,133.11069,3.0
28.384125,24.414406,176.02588,4.0
27.73023,23.572891,169.93388,4.0
27.599834,23.190702,167.15411,4.0
33.39589,27.740007,199.91487,4.0
34.39148,28.244064,203.51683,4.0
34.751614,28.220818,203.31836,4.0
36.04518,28.947725,208.52325,5.0
38.544624,30.616573,220.51038,6.0
38.09962,29.9358,215.57327,6.0
41.00032,31.870264,229.4672,6.0
41.737938,32.100166,231.08533,7.0
45.371346,34.52904,248.53006,7.0
45.550682,34.306137,246.88513,7.0
44.89317,33.464012,240.78477,8.0
44.01141,32.47353,233.61876,8.0
45.11133,32.950428,237.00946,9.0
46.420902,33.569443,241.42067,8.0
49.043407,35.11634,252.50183,9.0
49.517475,35.109726,252.4102,9.0
51.250977,35.98758,258.6757,9.0
51.229576,35.628162,256.04663,9.0
52.49091,36.15919,259.81625,8.0
53.25009,36.337566,261.0506,8.0
53.118023,35.910103,257.93246,9.0
52.310085,35.03781,251.62051,9.0
54.103687,35.90807,257.8221,9.0
53.61016,35.25837,253.10959,9.0
58.007217,37.807903,271.3604,8.0
58.58253,37.843307,271.56247,8.0
59.023712,37.792202,271.1433,8.0
58.4521,37.09917,266.1192,8.0
58.901314,37.06045,265.78912,8.0
59.547176,37.14505,266.343,8.0
59.048347,36.520237,261.81046,8.0
61.137,37.49277,268.7282,8.0
60.544754,36.8187,263.84305,8.0
61.211926,36.915333,264.48126,8.0
61.623985,36.857796,264.0143,8.0
61.587803,36.535282,261.6495,8.0
63.531845,37.383186,267.6655,8.0
65.720024,38.359966,274.601,8.0
67.732185,39.21924,280.6921,8.0
67.1098,38.551495,275.85355,8.0
67.86234,38.677864,276.6976,8.0
69.249146,39.160934,280.0921,8.0
69.61832,39.06551,279.34787,8.0
69.85228,38.89625,278.07568,8.0
67.1889,37.128506,265.37823,8.0
68.60273,37.6235,268.85547,8.0
72.43432,39.427082,281.67966,7.0
72.75455,39.306763,280.75568,7.0
73.632645,39.48739,281.98065,7.0
70.85884,37.721306,269.30627,8.0
70.22188,37.110165,264.88098,8.0
70.9138,37.20507,265.4956,8.0
74.823975,38.974945,278.0593,7.0
76.4918,39.55992,282.16504,7.0
77.62567,39.86242,284.25397,7.0
80.94371,41.274414,294.25116,8.0
80.74018,40.88352,291.39307,7.0
78.55198,39.500046,281.4631,8.0
76.449684,38.1785,271.97867,7.0
78.868805,39.117546,278.59863,7.0
82.09568,40.441765,287.95734,7.0
85.58259,41.875362,298.0894,7.0
86.38754,41.98627,298.80267,7.0
82.10117,39.63767,282.0159,8.0
84.422295,40.489044,287.99878,8.0
86.21388,41.076942,292.10443,8.0
88.847305,42.055653,298.98584,8.0
88.11481,41.438755,294.52243,7.0
89.74554,41.934017,297.9633,7.0
5.354478,7.516009,53.649433,7.0
6.487562,8.936233,63.7812,8.0
4.721483,6.384193,45.56212,11.0
5.492429,7.292775,52.041485,11.0
5.653775,7.374099,52.61674,12.0
6.038965,7.739465,55.21835,11.0
6.028118,7.59346,54.171253,12.0
5.5699673,6.8983793,49.207603,11.0
5.6629853,6.8976154,49.197086,11.0
5.629584,6.7454014,48.106377,10.0
5.832875,6.877125,49.040573,10.0
5.762455,6.6870694,47.680134,10.0
5.824936,6.6547413,47.444416,10.0
5.3427315,6.010624,42.847454,10.0
5.247242,5.814398,41.443943,10.0
5.6951838,6.217231,44.31017,9.0
6.529058,7.023455,50.05029,8.0
6.040878,6.404777,45.636086,7.0
6.301922,6.5867405,46.927,7.0
7.075419,7.2917314,51.94336,5.0
5.896247,5.9926662,42.684074,4.0
6.705828,6.7227273,47.8781,4.0
7.566868,7.4840765,53.293537,3.0
10.023138,9.782123,69.648796,3.0
10.017206,9.648493,68.6884,3.0
12.438384,11.825909,84.178505,3.0
13.898425,13.045663,92.84848,3.0
14.338382,13.289275,94.56952,3.0
14.104059,12.909653,91.85544,3.0
17.528023,15.84673,112.73785,3.0
26.448683,23.621769,168.02795,4.0
27.342804,24.127762,171.60278,4.0
25.545143,22.274612,158.39995,4.0
30.623943,26.39074,187.64336,4.0
30.984716,26.392838,187.63065,5.0
33.809525,28.469757,202.36563,5.0
34.296227,28.55314,202.92775,5.0
34.433887,28.34731,201.43423,6.0
38.703396,31.509933,223.87312,5.0
38.53943,31.033388,220.45302,6.0
40.31863,32.114944,228.10019,7.0
40.572327,31.971247,227.0434,7.0
41.619545,32.449265,230.40096,7.0
43.04568,33.209602,235.76129,8.0
43.488903,33.203716,235.68077,8.0
42.602882,32.19349,228.47221,8.0
45.38143,33.94484,240.86087,8.0
46.240715,34.239807,242.91272,8.0
46.577225,34.145657,242.20332,8.0
50.246506,36.47253,258.66367,9.0
49.807423,35.80094,253.8564,9.0
52.230537,37.17975,263.58676,9.0
50.7781,35.799793,253.75838,8.0
52.15177,36.41959,258.1053,9.0
51.838917,35.86104,254.10075,8.0
51.00836,34.958084,247.65727,9.0
53.520668,36.34164,257.4114,8.0
54.338398,36.559776,258.90817,8.0
53.09583,35.400314,250.64989,8.0
57.999397,38.32266,271.2899,8.0
58.507732,38.314735,271.18182,8.0
58.07103,37.693535,266.73352,8.0
57.608044,37.066273,262.2436,8.0
57.961826,36.970848,261.517,8.0
58.530514,37.01296,261.76288,8.0
61.32383,38.44916,271.86554,8.0
61.83255,38.440792,271.75146,8.0
60.637966,37.382492,264.2162,8.0
60.978848,37.2805,263.4412,8.0
60.018887,36.39144,257.10547,8.0
61.101814,36.74546,259.55237,8.0
62.110264,37.049305,261.6435,8.0
67.92652,40.19312,283.78497,8.0
68.42475,40.16513,283.5267,8.0
69.30782,40.3617,284.8528,8.0
69.15953,39.959267,281.95135,8.0
69.23982,39.69415,280.01932,8.0
66.21124,37.66463,265.64355,8.0
67.55712,38.135574,268.9052,8.0
67.91407,38.045357,268.2089,8.0
69.15381,38.4473,270.98123,8.0
73.37277,40.487152,285.2934,7.0
73.90449,40.477158,285.1575,7.0
71.2866,38.755028,272.96216,8.0
70.84931,38.23494,269.23633,8.0
70.21243,37.61548,264.8122,8.0
70.07383,37.26999,262.31796,8.0
70.785835,37.37862,263.0199,8.0
76.730576,40.229176,283.0104,7.0
78.73768,40.989544,288.28992,7.0
79.30986,40.997475,288.27557,8.0
81.86704,42.024242,295.42294,7.0
82.41611,42.013107,295.27182,7.0
79.11333,40.052082,281.41962,7.0
82.43875,41.450527,291.17276,7.0
83.4517,41.67516,292.677,7.0
84.13262,41.732063,293.00235,7.0
84.04691,41.41049,290.6703,7.0
80.861145,39.575916,277.72162,8.0
84.410965,41.0404,287.92407,8.0
85.35543,41.22726,289.15967,8.0
86.78236,41.64319,292.00034,8.0
86.465904,41.22258,288.9748,7.0
88.32162,41.83628,293.199,7.0
4.6069226,6.5543795,46.15338,8.0
4.5521345,6.355337,44.747715,11.0
4.548069,6.2331142,43.883076,12.0
5.439378,7.3202887,51.532246,11.0
5.3771296,7.108393,50.035763,12.0
5.7229357,7.433921,52.322006,12.0
6.027296,7.695398,54.15696,12.0
5.9717393,7.496281,52.750313,11.0
5.6881146,7.02219,49.409103,11.0
5.407664,6.567376,46.204124,11.0
5.6287575,6.726475,47.31841,11.0
5.212679,6.1311226,43.12565,11.0
5.4929094,6.3605285,44.73435,10.0
5.3812404,6.136057,43.1508,10.0
5.576566,6.2631283,44.039417,10.0
6.1795273,6.8374686,48.07239,9.0
5.338562,5.8207035,40.91901,7.0
5.0591383,5.43665,38.214626,7.0
5.511167,5.838374,41.033455,6.0
7.6920147,8.034698,56.462845,4.0
10.185289,10.492252,73.72391,3.0
9.928549,10.0885725,70.878586,3.0
12.520562,12.551536,88.171265,3.0
13.112835,12.971105,91.1069,3.0
13.284713,12.969283,91.08225,3.0
14.482975,13.956593,98.003105,3.0
14.319051,13.622785,95.64633,3.0
15.90521,14.94141,104.890274,3.0
20.249035,18.785633,131.85905,4.0
26.594685,24.369839,171.03165,4.0
24.70507,22.363804,156.9309,4.0
27.567184,24.655708,172.98901,5.0
29.177063,25.786625,180.8977,5.0
29.284338,25.578615,179.41235,5.0
33.99216,29.34732,205.81635,5.0
32.69997,27.908932,195.69957,6.0
33.989536,28.68164,201.08757,6.0
35.963608,30.008224,210.35622,6.0
38.512867,31.780117,222.74277,6.0
39.83709,32.513435,227.84698,6.0
40.2658,32.50791,227.77238,7.0
45.261047,36.14977,253.24942,7.0
44.35213,35.048817,245.49709,8.0
43.829147,34.27271,240.02187,8.0
44.354424,34.3239,240.34082,8.0
45.620132,34.94113,244.62218,8.0
46.01278,34.88393,244.18073,8.0
46.132717,34.6232,242.31464,8.0
48.05962,35.71031,249.88011,9.0
49.781734,36.625324,256.23856,9.0
53.04563,38.64572,270.32648,8.0
54.354603,39.216583,274.27127,8.0
52.522503,37.531937,262.44254,8.0
51.75878,36.635456,256.12784,8.0
52.239388,36.628284,256.03122,8.0
54.456326,37.827366,264.36438,9.0
55.367226,38.105476,266.2588,8.0
55.86653,38.097816,266.15558,8.0
55.126106,37.252514,260.20123,9.0
55.092842,36.895973,257.6619,9.0
55.5757,36.888344,257.55923,9.0
53.76427,35.371445,246.92026,8.0
55.09202,35.928253,250.7583,8.0
55.56163,35.92064,250.65578,8.0
58.651047,37.592308,262.26868,9.0
61.116055,38.83869,270.91003,8.0
61.984955,39.058285,272.3867,8.0
62.991222,39.36003,274.43515,8.0
63.20825,39.167698,273.03802,8.0
59.392662,36.50026,254.39058,9.0
62.495186,38.093243,265.43753,9.0
62.823906,37.983368,264.61618,9.0
65.765495,39.442307,274.7217,8.0
66.42758,39.52176,275.21622,8.0
64.134995,37.855957,263.55923,8.0
69.04214,40.432602,281.43707,8.0
68.43638,39.76578,276.73492,8.0
67.52824,38.934917,270.89297,8.0
67.6804,38.723446,269.3617,8.0
67.61561,38.39201,266.99628,8.0
69.4245,39.12141,272.00742,8.0
72.7533,40.689938,282.8488,8.0
71.711685,39.809,276.66156,8.0
73.32644,40.40479,280.73727,8.0
70.51678,38.571743,267.9386,8.0
73.24557,39.772793,276.2169,8.0
71.60801,38.602654,268.02704,8.0
75.898926,40.622326,281.9829,7.0
77.05213,40.94582,284.16034,7.0
79.646255,42.025036,291.57956,7.0
80.65737,42.25968,293.13626,7.0
79.435555,41.329292,286.61234,8.0
78.591644,40.607044,281.5342,8.0
77.55729,39.796997,275.8495,7.0
78.69934,40.107178,277.92993,7.0
80.0232,40.50516,280.61716,7.0
81.19456,40.821106,282.73428,7.0
82.676,41.287678,285.89282,7.0
82.015656,40.685555,281.65103,8.0
82.60185,40.705677,281.7174,8.0
83.9967,41.121407,284.52048,8.0
87.24823,42.434753,293.5306,8.0
85.89557,41.50625,287.03217,7.0
86.531906,41.544632,287.22128,7.0
4.6422734,6.6930485,46.50151,11.0
4.62026,6.5367594,45.41151,13.0
4.8229012,6.698216,46.52884,13.0
5.1771536,7.060619,49.041615,12.0
5.032801,6.742229,46.82563,12.0
4.6830974,6.164602,42.809742,12.0
5.535528,7.162101,49.731865,12.0
5.863926,7.459442,51.79127,11.0
5.7753825,7.2253337,50.16067,11.0
5.7280664,7.049577,48.935387,11.0
5.8847694,7.126517,49.4642,11.0
4.9836965,5.940233,41.225903,11.0
5.293439,6.211572,43.104294,11.0
5.419728,6.262639,43.45381,10.0
5.4790726,6.2359757,43.2639,10.0
6.0458593,6.779085,47.026478,9.0
5.583913,6.1696835,42.794064,7.0
5.5517993,6.0459085,41.930576,6.0
7.638602,8.200404,56.86596,4.0
